# .PCD v.7 - Point Cloud Data file format
VERSION .7
FIELDS x y z par par par par par 
SIZE 4 4 4 4 4 4 4 4 
TYPE F F F F F F F F 
COUNT 1 1 1 1 1 1 1 1 
WIDTH 578
HEIGHT 1
POINTS 578
DATA ascii
0.007722 -0.108058 0.497000 183690.000000 1.000000 -0.204663 162.853012 -15.218955 
0.007202 -0.107740 0.498000 184969.000000 1.000000 -0.143100 163.116028 -15.160091 
0.006667 -0.107740 0.498000 184968.000000 1.000000 -0.081534 163.399475 -15.160091 
0.006132 -0.107740 0.498000 184967.000000 1.000000 -0.019967 163.683090 -15.160091 
0.005608 -0.107956 0.499000 184966.000000 1.000000 0.041601 163.966873 -15.160091 
0.005082 -0.107635 0.500000 186245.000000 1.000000 0.103172 164.237396 -15.101202 
0.004572 -0.108281 0.503000 186244.000000 1.000000 0.164743 164.522873 -15.101202 
0.004039 -0.108496 0.504000 186243.000000 1.000000 0.226316 164.808456 -15.101202 
0.003449 -0.106989 0.497000 186242.000000 1.000000 0.287890 165.094162 -15.101201 
0.002950 -0.107739 0.503000 187521.000000 1.000000 0.349465 165.372131 -15.042286 
0.002380 -0.106454 0.497000 187520.000000 1.000000 0.411040 165.659439 -15.042286 
0.001869 -0.107739 0.503000 187519.000000 1.000000 0.472616 165.946808 -15.042286 
0.001341 -0.108264 0.508000 188798.000000 1.000000 0.534193 166.230652 -14.983344 
0.000798 -0.108690 0.510000 188797.000000 1.000000 0.595770 166.519562 -14.983345 
0.000247 -0.106657 0.503000 190076.000000 1.000000 0.657347 166.807816 -14.924376 
-0.000297 -0.107930 0.509000 190075.000000 1.000000 0.718924 167.098221 -14.924376 
-0.000838 -0.107081 0.505000 190074.000000 1.000000 0.780501 167.388611 -14.924376 
-0.001383 -0.106749 0.506000 191353.000000 1.000000 0.842078 167.682755 -14.865383 
-0.001923 -0.106538 0.505000 191352.000000 1.000000 0.903655 167.974564 -14.865383 
-0.002466 -0.106538 0.505000 191351.000000 1.000000 0.965231 168.266312 -14.865383 
-0.003015 -0.106205 0.506000 192630.000000 1.000000 1.026807 168.566284 -14.806365 
-0.003551 -0.105995 0.505000 192629.000000 1.000000 1.088381 168.859390 -14.806364 
-0.004094 -0.105995 0.505000 192628.000000 1.000000 1.149955 169.152390 -14.806364 
-0.004646 -0.105661 0.506000 193907.000000 1.000000 1.211528 169.458145 -14.747319 
-0.005190 -0.105661 0.506000 193906.000000 1.000000 1.273099 169.752396 -14.747319 
-0.005745 -0.105869 0.507000 193905.000000 1.000000 1.334669 170.046509 -14.747320 
-0.006315 -0.105739 0.509000 195184.000000 1.000000 1.396238 170.358002 -14.688251 
-0.006862 -0.105739 0.509000 195183.000000 1.000000 1.457805 170.653275 -14.688251 
-0.007380 -0.105324 0.507000 195182.000000 1.000000 1.519370 170.948349 -14.688250 
-0.007971 -0.105399 0.510000 196461.000000 1.000000 1.580933 171.265518 -14.629155 
-0.008519 -0.105399 0.510000 196460.000000 1.000000 1.642494 171.561661 -14.629155 
-0.009103 -0.105812 0.512000 196459.000000 1.000000 1.704053 171.857559 -14.629155 
-0.009578 -0.104439 0.508000 197738.000000 1.000000 1.765610 172.180313 -14.570035 
-0.010184 -0.105056 0.511000 197737.000000 1.000000 1.827164 172.477188 -14.570034 
-0.010712 -0.104850 0.510000 197736.000000 1.000000 1.888716 172.773773 -14.570035 
-0.011150 -0.103279 0.505000 199015.000000 1.000000 1.950264 173.102036 -14.510889 
-0.011692 -0.103279 0.505000 199014.000000 1.000000 2.011810 173.399490 -14.510889 
-0.012332 -0.104097 0.509000 199013.000000 1.000000 2.073353 173.696594 -14.510889 
-0.012904 -0.103753 0.510000 200292.000000 1.000000 2.134892 174.030243 -14.451719 
-0.013426 -0.103549 0.509000 200291.000000 1.000000 2.196428 174.328125 -14.451719 
-0.013973 -0.103549 0.509000 200290.000000 1.000000 2.257961 174.625595 -14.451719 
-0.014492 -0.102799 0.508000 201569.000000 1.000000 2.319490 174.964539 -14.392524 
-0.015038 -0.102799 0.508000 201568.000000 1.000000 2.381016 175.262680 -14.392524 
-0.015461 -0.101990 0.504000 201567.000000 1.000000 2.442537 175.560379 -14.392524 
-0.016003 -0.101448 0.504000 202846.000000 1.000000 2.504054 175.904480 -14.333304 
-0.016643 -0.102052 0.507000 202845.000000 1.000000 2.565567 176.202728 -14.333303 
-0.017154 -0.101306 0.506000 204124.000000 1.000000 2.627076 176.550873 -14.274058 
-0.017697 -0.101306 0.506000 204123.000000 1.000000 2.688581 176.849594 -14.274058 
-0.018205 -0.101106 0.505000 204122.000000 1.000000 2.750080 177.147781 -14.274058 
-0.018711 -0.100364 0.504000 205401.000000 1.000000 2.811575 177.500870 -14.214790 
-0.019253 -0.100364 0.504000 205400.000000 1.000000 2.873065 177.799423 -14.214790 
-0.019833 -0.100563 0.505000 205399.000000 1.000000 2.934550 178.097366 -14.214789 
-0.020376 -0.100019 0.505000 206678.000000 1.000000 2.996030 178.455261 -14.155497 
-0.020877 -0.099821 0.504000 206677.000000 1.000000 3.057505 178.753464 -14.155497 
-0.021419 -0.099279 0.504000 207956.000000 1.000000 3.118973 179.115173 -14.096179 
-0.021961 -0.099279 0.504000 207955.000000 1.000000 3.180437 179.413528 -14.096179 
-0.022502 -0.099279 0.504000 207954.000000 1.000000 3.241895 179.711212 -14.096179 
-0.023090 -0.099476 0.505000 207953.000000 1.000000 3.303346 -179.991821 -14.096178 
-0.023633 -0.098933 0.505000 209232.000000 1.000000 3.364792 -179.624832 -14.036837 
-0.024175 -0.098933 0.505000 209231.000000 1.000000 3.426232 -179.327850 -14.036837 
-0.024718 -0.098390 0.505000 210510.000000 1.000000 3.487665 -178.957245 -13.977469 
-0.024718 -0.097847 0.505000 211790.000000 1.000000 3.487665 -178.882111 -13.918079 
-0.025261 -0.097303 0.505000 213069.000000 1.000000 3.549092 -178.506363 -13.858665 
-0.025261 -0.096760 0.505000 214349.000000 1.000000 3.549092 -178.428162 -13.799228 
-0.025261 -0.096217 0.505000 215629.000000 1.000000 3.549092 -178.349121 -13.739766 
-0.025804 -0.095674 0.505000 216908.000000 1.000000 3.610512 -177.965836 -13.680282 
-0.025804 -0.095131 0.505000 218188.000000 1.000000 3.610512 -177.883606 -13.620773 
-0.025804 -0.094587 0.505000 219468.000000 1.000000 3.610512 -177.800507 -13.561240 
-0.026398 -0.094230 0.506000 220747.000000 1.000000 3.671926 -177.409454 -13.501685 
-0.026398 -0.093686 0.506000 222027.000000 1.000000 3.671926 -177.323029 -13.442107 
-0.026398 -0.093142 0.506000 223307.000000 1.000000 3.671926 -177.235657 -13.382506 
-0.026398 -0.092597 0.506000 224587.000000 1.000000 3.671926 -177.147339 -13.322883 
-0.026942 -0.092053 0.506000 225866.000000 1.000000 3.733332 -176.745789 -13.263236 
-0.026942 -0.091509 0.506000 227146.000000 1.000000 3.733332 -176.653961 -13.203568 
-0.026996 -0.091144 0.507000 228426.000000 1.000000 3.733332 -176.561111 -13.143876 
-0.027540 -0.090599 0.507000 229705.000000 1.000000 3.794732 -176.151276 -13.084162 
-0.027540 -0.090054 0.507000 230985.000000 1.000000 3.794732 -176.054764 -13.024426 
-0.027540 -0.089508 0.507000 232265.000000 1.000000 3.794732 -175.957184 -12.964667 
-0.027540 -0.088963 0.507000 233545.000000 1.000000 3.794732 -175.858505 -12.904887 
-0.028141 -0.088592 0.508000 234824.000000 1.000000 3.856124 -175.437424 -12.845085 
-0.028141 -0.088045 0.508000 236104.000000 1.000000 3.856124 -175.334885 -12.785261 
-0.028141 -0.087499 0.508000 237384.000000 1.000000 3.856124 -175.231186 -12.725415 
-0.028141 -0.086952 0.508000 238664.000000 1.000000 3.856124 -175.126297 -12.665548 
-0.028743 -0.086576 0.509000 239943.000000 1.000000 3.917510 -174.693512 -12.605659 
-0.028743 -0.086029 0.509000 241223.000000 1.000000 3.917510 -174.584534 -12.545750 
-0.028800 -0.085649 0.510000 242503.000000 1.000000 3.917510 -174.474304 -12.485818 
-0.028800 -0.085100 0.510000 243783.000000 1.000000 3.917510 -174.362793 -12.425866 
-0.029405 -0.084718 0.511000 245062.000000 1.000000 3.978888 -173.917831 -12.365893 
-0.029405 -0.084168 0.511000 246342.000000 1.000000 3.978888 -173.802002 -12.305900 
-0.029405 -0.083618 0.511000 247622.000000 1.000000 3.978888 -173.684814 -12.245884 
-0.029405 -0.083069 0.511000 248902.000000 1.000000 3.978888 -173.566254 -12.185849 
-0.030013 -0.082680 0.512000 250181.000000 1.000000 4.040258 -173.108643 -12.125793 
-0.030013 -0.082130 0.512000 251461.000000 1.000000 4.040258 -172.985504 -12.065717 
-0.029954 -0.081420 0.511000 252741.000000 1.000000 4.040258 -172.860901 -12.005620 
-0.029954 -0.080870 0.511000 254021.000000 1.000000 4.040258 -172.734802 -11.945504 
-0.029954 -0.080320 0.511000 255301.000000 1.000000 4.040258 -172.607193 -11.885368 
-0.029954 -0.079771 0.511000 256581.000000 1.000000 4.040258 -172.478043 -11.825212 
-0.030504 -0.079221 0.511000 257860.000000 1.000000 4.101621 -172.000610 -11.765037 
-0.030504 -0.078671 0.511000 259140.000000 1.000000 4.101621 -171.866501 -11.704841 
-0.030504 -0.078121 0.511000 260420.000000 1.000000 4.101621 -171.730728 -11.644626 
-0.030504 -0.077572 0.511000 261700.000000 1.000000 4.101621 -171.593307 -11.584392 
-0.030504 -0.077022 0.511000 262980.000000 1.000000 4.101621 -171.454178 -11.524137 
-0.030504 -0.076472 0.511000 264260.000000 1.000000 4.101621 -171.313339 -11.463865 
-0.030504 -0.075923 0.511000 265540.000000 1.000000 4.101621 -171.170731 -11.403574 
-0.030444 -0.075226 0.510000 266820.000000 1.000000 4.101621 -171.026321 -11.343264 
-0.031053 -0.074823 0.511000 268099.000000 1.000000 4.162975 -170.520432 -11.282934 
-0.030992 -0.074128 0.510000 269379.000000 1.000000 4.162975 -170.370468 -11.222586 
-0.030992 -0.073580 0.510000 270659.000000 1.000000 4.162975 -170.218613 -11.162219 
-0.030992 -0.073031 0.510000 271939.000000 1.000000 4.162975 -170.064819 -11.101835 
-0.030992 -0.072483 0.510000 273219.000000 1.000000 4.162975 -169.909058 -11.041432 
-0.030992 -0.071934 0.510000 274499.000000 1.000000 4.162975 -169.751282 -10.981011 
-0.030992 -0.071385 0.510000 275779.000000 1.000000 4.162975 -169.591476 -10.920571 
-0.030992 -0.070837 0.510000 277059.000000 1.000000 4.162975 -169.429581 -10.860115 
-0.031664 -0.070564 0.512000 278338.000000 1.000000 4.224322 -168.892578 -10.799640 
-0.031664 -0.070013 0.512000 279618.000000 1.000000 4.224322 -168.724442 -10.739148 
-0.031726 -0.069598 0.513000 280898.000000 1.000000 4.224322 -168.554108 -10.678638 
-0.031726 -0.069046 0.513000 282178.000000 1.000000 4.224322 -168.381531 -10.618112 
-0.031726 -0.068494 0.513000 283458.000000 1.000000 4.224322 -168.206650 -10.557567 
-0.031726 -0.067943 0.513000 284738.000000 1.000000 4.224322 -168.029419 -10.497005 
-0.031726 -0.067391 0.513000 286018.000000 1.000000 4.224322 -167.849838 -10.436427 
-0.031726 -0.066839 0.513000 287298.000000 1.000000 4.224322 -167.667816 -10.375834 
-0.032466 -0.066675 0.516000 288577.000000 1.000000 4.285661 -167.096848 -10.315221 
-0.032466 -0.066120 0.516000 289857.000000 1.000000 4.285661 -166.907837 -10.254593 
-0.032466 -0.065565 0.516000 291137.000000 1.000000 4.285661 -166.716248 -10.193948 
-0.032466 -0.065010 0.516000 292417.000000 1.000000 4.285661 -166.522049 -10.133287 
-0.032529 -0.064579 0.517000 293697.000000 1.000000 4.285660 -166.325165 -10.072610 
-0.032529 -0.064023 0.517000 294977.000000 1.000000 4.285660 -166.125549 -10.011916 
-0.032529 -0.063467 0.517000 296257.000000 1.000000 4.285660 -165.923172 -9.951207 
-0.032529 -0.062911 0.517000 297537.000000 1.000000 4.285660 -165.717972 -9.890481 
-0.032529 -0.062355 0.517000 298817.000000 1.000000 4.285660 -165.509872 -9.829741 
-0.032529 -0.061799 0.517000 300097.000000 1.000000 4.285660 -165.298843 -9.768984 
-0.032529 -0.061243 0.517000 301377.000000 1.000000 4.285660 -165.084824 -9.708213 
-0.032529 -0.060686 0.517000 302657.000000 1.000000 4.285660 -164.867752 -9.647426 
-0.032466 -0.060014 0.516000 303937.000000 1.000000 4.285661 -164.647552 -9.586623 
-0.032466 -0.059459 0.516000 305217.000000 1.000000 4.285661 -164.424194 -9.525806 
-0.032466 -0.058904 0.516000 306497.000000 1.000000 4.285661 -164.197586 -9.464974 
-0.032466 -0.058349 0.516000 307777.000000 1.000000 4.285661 -163.967697 -9.404128 
-0.032466 -0.057794 0.516000 309057.000000 1.000000 4.285661 -163.734436 -9.343266 
-0.032466 -0.057239 0.516000 310337.000000 1.000000 4.285661 -163.497726 -9.282391 
-0.032466 -0.056684 0.516000 311617.000000 1.000000 4.285661 -163.257538 -9.221500 
-0.032592 -0.056346 0.518000 312897.000000 1.000000 4.285660 -163.013779 -9.160596 
-0.032592 -0.055789 0.518000 314177.000000 1.000000 4.285660 -162.766373 -9.099677 
-0.032529 -0.055125 0.517000 315457.000000 1.000000 4.285660 -162.515259 -9.038745 
-0.032592 -0.054675 0.518000 316737.000000 1.000000 4.285660 -162.260361 -8.977798 
-0.031911 -0.053908 0.516000 318018.000000 1.000000 4.224322 -162.436096 -8.916838 
-0.031973 -0.053457 0.517000 319298.000000 1.000000 4.224322 -162.175522 -8.855865 
-0.031973 -0.052901 0.517000 320578.000000 1.000000 4.224322 -161.910919 -8.794878 
-0.032035 -0.052446 0.518000 321858.000000 1.000000 4.224322 -161.642197 -8.733877 
-0.032035 -0.051889 0.518000 323138.000000 1.000000 4.224322 -161.369293 -8.672864 
-0.032035 -0.051331 0.518000 324418.000000 1.000000 4.224322 -161.092117 -8.611837 
-0.032159 -0.050970 0.520000 325698.000000 1.000000 4.224322 -160.810577 -8.550798 
-0.032159 -0.050411 0.520000 326978.000000 1.000000 4.224322 -160.524582 -8.489746 
-0.032159 -0.049851 0.520000 328258.000000 1.000000 4.224322 -160.234039 -8.428681 
-0.032159 -0.049292 0.520000 329538.000000 1.000000 4.224322 -159.938843 -8.367604 
-0.032159 -0.048733 0.520000 330818.000000 1.000000 4.224322 -159.638916 -8.306515 
-0.031357 -0.047803 0.516000 332099.000000 1.000000 4.162975 -159.796417 -8.245413 
-0.031357 -0.047248 0.516000 333379.000000 1.000000 4.162975 -159.488815 -8.184299 
-0.031357 -0.046693 0.516000 334659.000000 1.000000 4.162975 -159.176147 -8.123174 
-0.031357 -0.046138 0.516000 335939.000000 1.000000 4.162975 -158.858322 -8.062036 
-0.031296 -0.045494 0.515000 337219.000000 1.000000 4.162975 -158.535217 -8.000887 
-0.031296 -0.044940 0.515000 338499.000000 1.000000 4.162975 -158.206726 -7.939726 
-0.031235 -0.044300 0.514000 339779.000000 1.000000 4.162975 -157.872742 -7.878554 
-0.031296 -0.043832 0.515000 341059.000000 1.000000 4.162975 -157.533127 -7.817370 
-0.031235 -0.043194 0.514000 342339.000000 1.000000 4.162975 -157.187790 -7.756176 
-0.030623 -0.042558 0.513000 343620.000000 1.000000 4.101621 -157.322647 -7.694970 
-0.030683 -0.042089 0.514000 344900.000000 1.000000 4.101621 -156.967407 -7.633754 
-0.030683 -0.041536 0.514000 346180.000000 1.000000 4.101621 -156.606033 -7.572527 
-0.030683 -0.040983 0.514000 347460.000000 1.000000 4.101621 -156.238358 -7.511289 
-0.030683 -0.040430 0.514000 348740.000000 1.000000 4.101621 -155.864288 -7.450041 
-0.030683 -0.039877 0.514000 350020.000000 1.000000 4.101621 -155.483658 -7.388783 
-0.030683 -0.039324 0.514000 351300.000000 1.000000 4.101621 -155.096359 -7.327514 
-0.030683 -0.038771 0.514000 352580.000000 1.000000 4.101621 -154.702209 -7.266235 
-0.030072 -0.038144 0.513000 353861.000000 1.000000 4.040258 -154.808243 -7.204947 
-0.030130 -0.037665 0.514000 355141.000000 1.000000 4.040258 -154.401611 -7.143649 
-0.030130 -0.037112 0.514000 356421.000000 1.000000 4.040258 -153.987640 -7.082340 
-0.030130 -0.036560 0.514000 357701.000000 1.000000 4.040258 -153.566177 -7.021023 
-0.030189 -0.036077 0.515000 358981.000000 1.000000 4.040258 -153.137054 -6.959697 
-0.030189 -0.035523 0.515000 360261.000000 1.000000 4.040258 -152.700104 -6.898361 
-0.030189 -0.034969 0.515000 361541.000000 1.000000 4.040258 -152.255157 -6.837016 
-0.030189 -0.034415 0.515000 362821.000000 1.000000 4.040258 -151.802078 -6.775662 
-0.029463 -0.033664 0.512000 364102.000000 1.000000 3.978888 -151.866714 -6.714300 
-0.029463 -0.033113 0.512000 365382.000000 1.000000 3.978888 -151.397827 -6.652928 
-0.029463 -0.032562 0.512000 366662.000000 1.000000 3.978888 -150.920135 -6.591549 
-0.029463 -0.032011 0.512000 367942.000000 1.000000 3.978888 -150.433487 -6.530160 
-0.029463 -0.031461 0.512000 369222.000000 1.000000 3.978888 -149.937683 -6.468764 
-0.029463 -0.030910 0.512000 370502.000000 1.000000 3.978888 -149.432556 -6.407360 
-0.029463 -0.030359 0.512000 371782.000000 1.000000 3.978888 -148.917908 -6.345947 
-0.029520 -0.029866 0.513000 373062.000000 1.000000 3.978888 -148.393539 -6.284527 
-0.028913 -0.029258 0.512000 374343.000000 1.000000 3.917510 -148.399384 -6.223099 
-0.028913 -0.028707 0.512000 375623.000000 1.000000 3.917510 -147.854980 -6.161664 
-0.028913 -0.028156 0.512000 376903.000000 1.000000 3.917510 -147.300095 -6.100221 
-0.028913 -0.027605 0.512000 378183.000000 1.000000 3.917510 -146.734558 -6.038771 
-0.028913 -0.027055 0.512000 379463.000000 1.000000 3.917510 -146.158157 -5.977314 
-0.028969 -0.026556 0.513000 380743.000000 1.000000 3.917510 -145.570679 -5.915850 
-0.029025 -0.026054 0.514000 382023.000000 1.000000 3.917510 -144.971970 -5.854379 
-0.029082 -0.025551 0.515000 383303.000000 1.000000 3.917510 -144.361801 -5.792901 
-0.028418 -0.024900 0.513000 384584.000000 1.000000 3.856125 -144.284988 -5.731417 
-0.028473 -0.024396 0.514000 385864.000000 1.000000 3.856125 -143.649506 -5.669927 
-0.028473 -0.023843 0.514000 387144.000000 1.000000 3.856125 -143.001724 -5.608429 
-0.028473 -0.023290 0.514000 388424.000000 1.000000 3.856125 -142.341431 -5.546926 
-0.028473 -0.022737 0.514000 389704.000000 1.000000 3.856125 -141.668457 -5.485417 
-0.028473 -0.022184 0.514000 390984.000000 1.000000 3.856125 -140.982620 -5.423903 
-0.028473 -0.021631 0.514000 392264.000000 1.000000 3.856125 -140.283752 -5.362382 
-0.028418 -0.021037 0.513000 393544.000000 1.000000 3.856125 -139.571686 -5.300857 
-0.027758 -0.020406 0.511000 394825.000000 1.000000 3.794732 -139.380371 -5.239325 
-0.027758 -0.019856 0.511000 396105.000000 1.000000 3.794732 -138.636826 -5.177788 
-0.027758 -0.019306 0.511000 397385.000000 1.000000 3.794732 -137.879227 -5.116246 
-0.027758 -0.018757 0.511000 398665.000000 1.000000 3.794732 -137.107422 -5.054699 
-0.027758 -0.018207 0.511000 399945.000000 1.000000 3.794732 -136.321304 -4.993148 
-0.027812 -0.017692 0.512000 401225.000000 1.000000 3.794732 -135.520782 -4.931592 
-0.027758 -0.017108 0.511000 402505.000000 1.000000 3.794732 -134.705780 -4.870030 
-0.027921 -0.016655 0.514000 403785.000000 1.000000 3.794732 -133.876221 -4.808465 
-0.027155 -0.015977 0.510000 405066.000000 1.000000 3.733332 -133.530075 -4.746895 
-0.027155 -0.015428 0.510000 406346.000000 1.000000 3.733332 -132.662613 -4.685321 
-0.027155 -0.014880 0.510000 407626.000000 1.000000 3.733332 -131.779968 -4.623744 
-0.027155 -0.014331 0.510000 408906.000000 1.000000 3.733332 -130.882187 -4.562161 
-0.027208 -0.013809 0.511000 410186.000000 1.000000 3.733332 -129.969284 -4.500576 
-0.027208 -0.013260 0.511000 411466.000000 1.000000 3.733332 -129.041397 -4.438987 
-0.027315 -0.012760 0.513000 412746.000000 1.000000 3.733332 -128.098618 -4.377395 
-0.027315 -0.012208 0.513000 414026.000000 1.000000 3.733332 -127.141121 -4.315799 
-0.026764 -0.011656 0.513000 415307.000000 1.000000 3.671926 -126.593826 -4.254200 
-0.026764 -0.011104 0.513000 416587.000000 1.000000 3.671926 -125.593376 -4.192598 
-0.026816 -0.010573 0.514000 417867.000000 1.000000 3.671926 -124.578217 -4.130993 
-0.026816 -0.010020 0.514000 419147.000000 1.000000 3.671926 -123.548676 -4.069386 
-0.026816 -0.009467 0.514000 420427.000000 1.000000 3.671926 -122.505127 -4.007776 
-0.026868 -0.008932 0.515000 421707.000000 1.000000 3.671926 -121.447975 -3.946163 
-0.026920 -0.008394 0.516000 422987.000000 1.000000 3.671926 -120.377701 -3.884548 
-0.026920 -0.007839 0.516000 424267.000000 1.000000 3.671926 -119.294807 -3.822931 
-0.026868 -0.007270 0.515000 425547.000000 1.000000 3.671926 -118.199867 -3.761312 
-0.026868 -0.006716 0.515000 426827.000000 1.000000 3.671926 -117.093491 -3.699691 
-0.026868 -0.006162 0.515000 428107.000000 1.000000 3.671926 -115.976326 -3.638069 
-0.026920 -0.005619 0.516000 429387.000000 1.000000 3.671926 -114.849083 -3.576444 
-0.026920 -0.005064 0.516000 430667.000000 1.000000 3.671926 -113.712509 -3.514819 
-0.026972 -0.004517 0.517000 431947.000000 1.000000 3.671926 -112.567383 -3.453192 
-0.027025 -0.003969 0.518000 433227.000000 1.000000 3.671926 -111.414551 -3.391564 
-0.027077 -0.003418 0.519000 434507.000000 1.000000 3.671926 -110.254852 -3.329935 
-0.027181 -0.002871 0.521000 435787.000000 1.000000 3.671926 -109.089211 -3.268305 
-0.027181 -0.002311 0.521000 437067.000000 1.000000 3.671926 -107.918533 -3.206674 
-0.027233 -0.001754 0.522000 438347.000000 1.000000 3.671926 -106.743774 -3.145043 
-0.027285 -0.001194 0.523000 439627.000000 1.000000 3.671926 -105.565903 -3.083411 
-0.027285 -0.000632 0.523000 440907.000000 1.000000 3.671926 -104.385918 -3.021779 
-0.027285 -0.000069 0.523000 442187.000000 1.000000 3.671926 -103.204796 -2.960147 
-0.027285 0.000493 0.523000 443467.000000 1.000000 3.671926 -102.023552 -2.898515 
-0.027285 0.001056 0.523000 444747.000000 1.000000 3.671926 -100.843193 -2.836882 
-0.027338 0.001622 0.524000 446027.000000 1.000000 3.671926 -99.664711 -2.775250 
-0.027338 0.002185 0.524000 447307.000000 1.000000 3.671926 -98.489098 -2.713619 
-0.027285 0.002744 0.523000 448587.000000 1.000000 3.671926 -97.317329 -2.651988 
-0.027285 0.003306 0.523000 449867.000000 1.000000 3.671926 -96.150360 -2.590358 
-0.027285 0.003869 0.523000 451147.000000 1.000000 3.671926 -94.989120 -2.528728 
-0.027285 0.004432 0.523000 452427.000000 1.000000 3.671926 -93.834518 -2.467100 
-0.027338 0.005004 0.524000 453707.000000 1.000000 3.671926 -92.687416 -2.405473 
-0.027285 0.005557 0.523000 454987.000000 1.000000 3.671926 -91.548668 -2.343847 
-0.027285 0.006119 0.523000 456267.000000 1.000000 3.671926 -90.419060 -2.282223 
-0.027338 0.006695 0.524000 457547.000000 1.000000 3.671926 -89.299355 -2.220599 
-0.027390 0.007272 0.525000 458827.000000 1.000000 3.671926 -88.190254 -2.158978 
-0.027390 0.007837 0.525000 460107.000000 1.000000 3.671926 -87.092445 -2.097359 
-0.027390 0.008402 0.525000 461387.000000 1.000000 3.671926 -86.006538 -2.035741 
-0.027442 0.008983 0.526000 462667.000000 1.000000 3.671926 -84.933113 -1.974126 
-0.027442 0.009549 0.526000 463947.000000 1.000000 3.671926 -83.872696 -1.912513 
-0.027442 0.010115 0.526000 465227.000000 1.000000 3.671926 -82.825752 -1.850902 
-0.027442 0.010681 0.526000 466507.000000 1.000000 3.671926 -81.792732 -1.789294 
-0.027390 0.011225 0.525000 467787.000000 1.000000 3.671926 -80.774002 -1.727688 
-0.027442 0.011812 0.526000 469067.000000 1.000000 3.671926 -79.769905 -1.666086 
-0.027442 0.012378 0.526000 470347.000000 1.000000 3.671926 -78.780739 -1.604486 
-0.027390 0.012919 0.525000 471627.000000 1.000000 3.671926 -77.806732 -1.542889 
-0.027338 0.013459 0.524000 472907.000000 1.000000 3.671926 -76.848099 -1.481296 
-0.027338 0.014022 0.524000 474187.000000 1.000000 3.671926 -75.905006 -1.419706 
-0.027285 0.014558 0.523000 475467.000000 1.000000 3.671926 -74.977562 -1.358120 
-0.027285 0.015121 0.523000 476747.000000 1.000000 3.671926 -74.065872 -1.296537 
-0.027181 0.015623 0.521000 478027.000000 1.000000 3.671926 -73.169983 -1.234958 
-0.027181 0.016184 0.521000 479307.000000 1.000000 3.671926 -72.289909 -1.173383 
-0.027233 0.016776 0.522000 480587.000000 1.000000 3.671926 -71.425636 -1.111813 
-0.027233 0.017338 0.522000 481867.000000 1.000000 3.671926 -70.577141 -1.050246 
-0.027233 0.017899 0.522000 483147.000000 1.000000 3.671926 -69.744339 -0.988684 
-0.027233 0.018461 0.522000 484427.000000 1.000000 3.671926 -68.927155 -0.927126 
-0.027181 0.018986 0.521000 485707.000000 1.000000 3.671926 -68.125473 -0.865574 
-0.027129 0.019509 0.520000 486987.000000 1.000000 3.671926 -67.339157 -0.804026 
-0.027077 0.020029 0.519000 488267.000000 1.000000 3.671926 -66.568062 -0.742482 
-0.027077 0.020588 0.519000 489547.000000 1.000000 3.671926 -65.812012 -0.680944 
-0.027025 0.021105 0.518000 490827.000000 1.000000 3.671926 -65.070839 -0.619412 
-0.027025 0.021663 0.518000 492107.000000 1.000000 3.671926 -64.344345 -0.557884 
-0.027025 0.022220 0.518000 493387.000000 1.000000 3.671926 -63.632328 -0.496363 
-0.027025 0.022777 0.518000 494667.000000 1.000000 3.671926 -62.934563 -0.434846 
-0.026972 0.023289 0.517000 495947.000000 1.000000 3.671926 -62.250835 -0.373336 
-0.026972 0.023845 0.517000 497227.000000 1.000000 3.671926 -61.580914 -0.311831 
-0.026972 0.024401 0.517000 498507.000000 1.000000 3.671926 -60.924561 -0.250333 
-0.026920 0.024909 0.516000 499787.000000 1.000000 3.671926 -60.281532 -0.188841 
-0.026920 0.025464 0.516000 501067.000000 1.000000 3.671926 -59.651588 -0.127355 
-0.026920 0.026019 0.516000 502347.000000 1.000000 3.671926 -59.034477 -0.065876 
-0.027475 0.026574 0.516000 503626.000000 1.000000 3.733332 -59.013943 -0.004403 
-0.027421 0.027077 0.515000 504906.000000 1.000000 3.733332 -58.421909 0.057062 
-0.028029 0.027684 0.516000 506185.000000 1.000000 3.794732 -58.414185 0.118521 
-0.028029 0.028240 0.516000 507465.000000 1.000000 3.794732 -57.845509 0.179973 
-0.027975 0.028739 0.515000 508745.000000 1.000000 3.794732 -57.287983 0.241418 
-0.028584 0.029350 0.516000 510024.000000 1.000000 3.856125 -57.302265 0.302855 
-0.028584 0.029905 0.516000 511304.000000 1.000000 3.856125 -56.765896 0.364285 
-0.029138 0.030460 0.516000 512583.000000 1.000000 3.917510 -56.789501 0.425707 
-0.029082 0.030955 0.515000 513863.000000 1.000000 3.917510 -56.272903 0.487121 
-0.029082 0.031509 0.515000 515143.000000 1.000000 3.917510 -55.766037 0.548527 
-0.029635 0.032063 0.515000 516422.000000 1.000000 3.978888 -55.806705 0.609926 
-0.029635 0.032617 0.515000 517702.000000 1.000000 3.978888 -55.317825 0.671316 
-0.029635 0.033171 0.515000 518982.000000 1.000000 3.978888 -54.837955 0.732698 
-0.030189 0.033725 0.515000 520261.000000 1.000000 4.040258 -54.893219 0.794071 
-0.030189 0.034279 0.515000 521541.000000 1.000000 4.040258 -54.429745 0.855436 
-0.030802 0.034900 0.516000 522820.000000 1.000000 4.101621 -54.490456 0.916792 
-0.030802 0.035455 0.516000 524100.000000 1.000000 4.101621 -54.042385 0.978139 
-0.030802 0.036010 0.516000 525380.000000 1.000000 4.101621 -53.602238 1.039477 
-0.031296 0.036494 0.515000 526659.000000 1.000000 4.162975 -53.674355 1.100806 
-0.031296 0.037048 0.515000 527939.000000 1.000000 4.162975 -53.248306 1.162126 
-0.031296 0.037602 0.515000 529219.000000 1.000000 4.162975 -52.829624 1.223436 
-0.031849 0.038156 0.515000 530498.000000 1.000000 4.224322 -52.911514 1.284737 
-0.031849 0.038710 0.515000 531778.000000 1.000000 4.224322 -52.505764 1.346027 
-0.032403 0.039264 0.515000 533057.000000 1.000000 4.285661 -52.590668 1.407309 
-0.032403 0.039818 0.515000 534337.000000 1.000000 4.285661 -52.197132 1.468580 
-0.032403 0.040372 0.515000 535617.000000 1.000000 4.285661 -51.810123 1.529840 
-0.032956 0.040926 0.515000 536896.000000 1.000000 4.346991 -51.902695 1.591091 
-0.032956 0.041480 0.515000 538176.000000 1.000000 4.346991 -51.526928 1.652331 
-0.032956 0.042034 0.515000 539456.000000 1.000000 4.346991 -51.157269 1.713561 
-0.032956 0.042588 0.515000 540736.000000 1.000000 4.346991 -50.793591 1.774780 
-0.033510 0.043142 0.515000 542015.000000 1.000000 4.408312 -50.897102 1.835989 
-0.033510 0.043696 0.515000 543295.000000 1.000000 4.408312 -50.543514 1.897186 
-0.033510 0.044250 0.515000 544575.000000 1.000000 4.408312 -50.195530 1.958372 
-0.034129 0.044891 0.516000 545854.000000 1.000000 4.469626 -50.304256 2.019547 
-0.034063 0.045358 0.515000 547134.000000 1.000000 4.469626 -49.965599 2.080710 
-0.034063 0.045912 0.515000 548414.000000 1.000000 4.469626 -49.632191 2.141862 
-0.034063 0.046466 0.515000 549694.000000 1.000000 4.469626 -49.303932 2.203002 
-0.034617 0.047020 0.515000 550973.000000 1.000000 4.530931 -49.420563 2.264132 
-0.034617 0.047574 0.515000 552253.000000 1.000000 4.530931 -49.100716 2.325248 
-0.034617 0.048128 0.515000 553533.000000 1.000000 4.530931 -48.785706 2.386353 
-0.034617 0.048682 0.515000 554813.000000 1.000000 4.530931 -48.475437 2.447445 
-0.034617 0.049236 0.515000 556093.000000 1.000000 4.530931 -48.169823 2.508526 
-0.034617 0.049790 0.515000 557373.000000 1.000000 4.530931 -47.868778 2.569593 
-0.035170 0.050344 0.515000 558652.000000 1.000000 4.592227 -47.997723 2.630649 
-0.035170 0.050898 0.515000 559932.000000 1.000000 4.592227 -47.703907 2.691691 
-0.035170 0.051452 0.515000 561212.000000 1.000000 4.592227 -47.414387 2.752721 
-0.035239 0.052107 0.516000 562492.000000 1.000000 4.592226 -47.129082 2.813737 
-0.035239 0.052662 0.516000 563772.000000 1.000000 4.592226 -46.847919 2.874741 
-0.035239 0.053217 0.516000 565052.000000 1.000000 4.592226 -46.570820 2.935731 
-0.035793 0.053772 0.516000 566331.000000 1.000000 4.653513 -46.709137 2.996708 
-0.035793 0.054327 0.516000 567611.000000 1.000000 4.653513 -46.438271 3.057671 
-0.035793 0.054882 0.516000 568891.000000 1.000000 4.653513 -46.171238 3.118621 
-0.035793 0.055437 0.516000 570171.000000 1.000000 4.653513 -45.907963 3.179558 
-0.035793 0.055992 0.516000 571451.000000 1.000000 4.653513 -45.648388 3.240479 
-0.035793 0.056547 0.516000 572731.000000 1.000000 4.653513 -45.392437 3.301387 
-0.036348 0.057102 0.516000 574010.000000 1.000000 4.714791 -45.537785 3.362281 
-0.036348 0.057657 0.516000 575290.000000 1.000000 4.714791 -45.287231 3.423160 
-0.036348 0.058212 0.516000 576570.000000 1.000000 4.714791 -45.040108 3.484025 
-0.036348 0.058767 0.516000 577850.000000 1.000000 4.714791 -44.796352 3.544876 
-0.036348 0.059323 0.516000 579130.000000 1.000000 4.714791 -44.555904 3.605711 
-0.036348 0.059878 0.516000 580410.000000 1.000000 4.714791 -44.318707 3.666532 
-0.036974 0.060550 0.517000 581689.000000 1.000000 4.776060 -44.469234 3.727338 
-0.036974 0.061106 0.517000 582969.000000 1.000000 4.776060 -44.236725 3.788129 
-0.036974 0.061662 0.517000 584249.000000 1.000000 4.776060 -44.007294 3.848904 
-0.036974 0.062218 0.517000 585529.000000 1.000000 4.776060 -43.780888 3.909664 
-0.036974 0.062774 0.517000 586809.000000 1.000000 4.776060 -43.557449 3.970409 
-0.036974 0.063330 0.517000 588089.000000 1.000000 4.776060 -43.336937 4.031138 
-0.036974 0.063887 0.517000 589369.000000 1.000000 4.776060 -43.119289 4.091851 
-0.037529 0.064443 0.517000 590648.000000 1.000000 4.837319 -43.274746 4.152548 
-0.037602 0.065125 0.518000 591928.000000 1.000000 4.837319 -43.061096 4.213230 
-0.037602 0.065682 0.518000 593208.000000 1.000000 4.837319 -42.850174 4.273895 
-0.037602 0.066239 0.518000 594488.000000 1.000000 4.837319 -42.641926 4.334544 
-0.037602 0.066796 0.518000 595768.000000 1.000000 4.837319 -42.436310 4.395176 
-0.037675 0.067483 0.519000 597048.000000 1.000000 4.837319 -42.233288 4.455792 
-0.037675 0.068042 0.519000 598328.000000 1.000000 4.837319 -42.032806 4.516392 
-0.037675 0.068600 0.519000 599608.000000 1.000000 4.837319 -41.834827 4.576974 
-0.038232 0.069158 0.519000 600887.000000 1.000000 4.898569 -41.994461 4.637539 
-0.038232 0.069716 0.519000 602167.000000 1.000000 4.898569 -41.799824 4.698088 
-0.038232 0.070275 0.519000 603447.000000 1.000000 4.898569 -41.607571 4.758619 
-0.038232 0.070833 0.519000 604727.000000 1.000000 4.898569 -41.417660 4.819132 
-0.038159 0.071254 0.518000 606007.000000 1.000000 4.898569 -41.230049 4.879629 
-0.038159 0.071811 0.518000 607287.000000 1.000000 4.898569 -41.044708 4.940108 
-0.038159 0.072368 0.518000 608567.000000 1.000000 4.898569 -40.861595 5.000569 
-0.038159 0.072925 0.518000 609847.000000 1.000000 4.898569 -40.680676 5.061012 
-0.038790 0.073624 0.519000 611126.000000 1.000000 4.959809 -40.842739 5.121438 
-0.038790 0.074183 0.519000 612406.000000 1.000000 4.959809 -40.664627 5.181845 
-0.038790 0.074741 0.519000 613686.000000 1.000000 4.959809 -40.488609 5.242234 
-0.038790 0.075299 0.519000 614966.000000 1.000000 4.959809 -40.314651 5.302605 
-0.038790 0.075858 0.519000 616246.000000 1.000000 4.959809 -40.142715 5.362958 
-0.038790 0.076416 0.519000 617526.000000 1.000000 4.959809 -39.972778 5.423292 
-0.038790 0.076974 0.519000 618806.000000 1.000000 4.959809 -39.804806 5.483607 
-0.038790 0.077532 0.519000 620086.000000 1.000000 4.959809 -39.638763 5.543903 
-0.039348 0.078091 0.519000 621365.000000 1.000000 5.021039 -39.801941 5.604181 
-0.039348 0.078649 0.519000 622645.000000 1.000000 5.021039 -39.638271 5.664439 
-0.039348 0.079207 0.519000 623925.000000 1.000000 5.021039 -39.476444 5.724679 
-0.039348 0.079766 0.519000 625205.000000 1.000000 5.021039 -39.316444 5.784898 
-0.039348 0.080324 0.519000 626485.000000 1.000000 5.021039 -39.158234 5.845098 
-0.039348 0.080882 0.519000 627765.000000 1.000000 5.021039 -39.001785 5.905279 
-0.039348 0.081440 0.519000 629045.000000 1.000000 5.021039 -38.847076 5.965440 
-0.039348 0.081999 0.519000 630325.000000 1.000000 5.021039 -38.694077 6.025581 
-0.039983 0.082716 0.520000 631604.000000 1.000000 5.082260 -38.857384 6.085702 
-0.039983 0.083275 0.520000 632884.000000 1.000000 5.082260 -38.706398 6.145803 
-0.039983 0.083835 0.520000 634164.000000 1.000000 5.082260 -38.557053 6.205884 
-0.039983 0.084394 0.520000 635444.000000 1.000000 5.082260 -38.409321 6.265945 
-0.039983 0.084953 0.520000 636724.000000 1.000000 5.082260 -38.263180 6.325985 
-0.039348 0.085348 0.519000 638005.000000 1.000000 5.021039 -37.810558 6.386005 
-0.039348 0.085907 0.519000 639285.000000 1.000000 5.021039 -37.668827 6.446003 
-0.039424 0.086632 0.520000 640565.000000 1.000000 5.021039 -37.528606 6.505982 
-0.039424 0.087191 0.520000 641845.000000 1.000000 5.021039 -37.389881 6.565939 
-0.039424 0.087750 0.520000 643125.000000 1.000000 5.021039 -37.252625 6.625876 
-0.039424 0.088310 0.520000 644405.000000 1.000000 5.021039 -37.116817 6.685791 
-0.039348 0.088698 0.519000 645685.000000 1.000000 5.021039 -36.982433 6.745685 
-0.039348 0.089256 0.519000 646965.000000 1.000000 5.021039 -36.849461 6.805557 
-0.038715 0.089642 0.518000 648246.000000 1.000000 4.959809 -36.418659 6.865408 
-0.038715 0.090199 0.518000 649526.000000 1.000000 4.959809 -36.289700 6.925238 
-0.038715 0.090756 0.518000 650806.000000 1.000000 4.959809 -36.162079 6.985046 
-0.038715 0.091313 0.518000 652086.000000 1.000000 4.959809 -36.035774 7.044832 
-0.038715 0.091870 0.518000 653366.000000 1.000000 4.959809 -35.910774 7.104596 
-0.038715 0.092428 0.518000 654646.000000 1.000000 4.959809 -35.787052 7.164337 
-0.038715 0.092985 0.518000 655926.000000 1.000000 4.959809 -35.664593 7.224056 
-0.038715 0.093542 0.518000 657206.000000 1.000000 4.959809 -35.543381 7.283753 
-0.038159 0.094099 0.518000 658487.000000 1.000000 4.898569 -35.132889 7.343428 
-0.038159 0.094656 0.518000 659767.000000 1.000000 4.898569 -35.015335 7.403080 
-0.038159 0.095214 0.518000 661047.000000 1.000000 4.898569 -34.898968 7.462709 
-0.038159 0.095771 0.518000 662327.000000 1.000000 4.898569 -34.783764 7.522316 
-0.038159 0.096328 0.518000 663607.000000 1.000000 4.898569 -34.669712 7.581900 
-0.038159 0.096885 0.518000 664887.000000 1.000000 4.898569 -34.556797 7.641460 
-0.038159 0.097442 0.518000 666167.000000 1.000000 4.898569 -34.445000 7.700997 
-0.038159 0.098000 0.518000 667447.000000 1.000000 4.898569 -34.334309 7.760511 
-0.037529 0.098367 0.517000 668728.000000 1.000000 4.837319 -33.942715 7.820002 
-0.037529 0.098923 0.517000 670008.000000 1.000000 4.837319 -33.835361 7.879470 
-0.037529 0.099479 0.517000 671288.000000 1.000000 4.837319 -33.729057 7.938913 
-0.037529 0.100035 0.517000 672568.000000 1.000000 4.837319 -33.623791 7.998333 
-0.037602 0.100786 0.518000 673848.000000 1.000000 4.837319 -33.519543 8.057730 
-0.037602 0.101343 0.518000 675128.000000 1.000000 4.837319 -33.416302 8.117102 
-0.037602 0.101900 0.518000 676408.000000 1.000000 4.837319 -33.314053 8.176450 
-0.037045 0.102457 0.518000 677689.000000 1.000000 4.776060 -32.937939 8.235774 
-0.037045 0.103014 0.518000 678969.000000 1.000000 4.776060 -32.838779 8.295074 
-0.037045 0.103572 0.518000 680249.000000 1.000000 4.776060 -32.740562 8.354349 
-0.037045 0.104129 0.518000 681529.000000 1.000000 4.776060 -32.643280 8.413600 
-0.037045 0.104686 0.518000 682809.000000 1.000000 4.776060 -32.546917 8.472826 
-0.037045 0.105243 0.518000 684089.000000 1.000000 4.776060 -32.451462 8.532027 
-0.036489 0.105800 0.518000 685370.000000 1.000000 4.714791 -32.087902 8.591204 
-0.036489 0.106358 0.518000 686650.000000 1.000000 4.714791 -31.995333 8.650355 
-0.036489 0.106915 0.518000 687930.000000 1.000000 4.714791 -31.903625 8.709482 
-0.036489 0.107472 0.518000 689210.000000 1.000000 4.714791 -31.812773 8.768583 
-0.035862 0.107821 0.517000 690491.000000 1.000000 4.653514 -31.457319 8.827660 
-0.035862 0.108377 0.517000 691771.000000 1.000000 4.653514 -31.369225 8.886710 
-0.035862 0.108933 0.517000 693051.000000 1.000000 4.653514 -31.281940 8.945735 
-0.035862 0.109489 0.517000 694331.000000 1.000000 4.653514 -31.195457 9.004734 
-0.035307 0.110045 0.517000 695612.000000 1.000000 4.592227 -30.847853 9.063708 
-0.035307 0.110601 0.517000 696892.000000 1.000000 4.592227 -30.764008 9.122656 
-0.035307 0.111158 0.517000 698172.000000 1.000000 4.592227 -30.680923 9.181579 
-0.035307 0.111714 0.517000 699452.000000 1.000000 4.592227 -30.598593 9.240475 
-0.034751 0.112270 0.517000 700733.000000 1.000000 4.530931 -30.258598 9.299344 
-0.034751 0.112826 0.517000 702013.000000 1.000000 4.530931 -30.178791 9.358188 
-0.034751 0.113382 0.517000 703293.000000 1.000000 4.530931 -30.099697 9.417005 
-0.034196 0.113938 0.517000 704574.000000 1.000000 4.469626 -29.765333 9.475796 
-0.034196 0.114494 0.517000 705854.000000 1.000000 4.469626 -29.688681 9.534560 
-0.034196 0.115050 0.517000 707134.000000 1.000000 4.469626 -29.612707 9.593298 
-0.034196 0.115607 0.517000 708414.000000 1.000000 4.469626 -29.537405 9.652009 
-0.033640 0.116163 0.517000 709695.000000 1.000000 4.408312 -29.210238 9.710692 
-0.033640 0.116719 0.517000 710975.000000 1.000000 4.408312 -29.137270 9.769350 
-0.033640 0.117275 0.517000 712255.000000 1.000000 4.408312 -29.064941 9.827979 
-0.033084 0.117831 0.517000 713536.000000 1.000000 4.346991 -28.743116 9.886581 
-0.033084 0.118387 0.517000 714816.000000 1.000000 4.346991 -28.673044 9.945157 
-0.033084 0.118943 0.517000 716096.000000 1.000000 4.346991 -28.603579 10.003704 
-0.032466 0.119268 0.516000 717377.000000 1.000000 4.285661 -28.286982 10.062225 
-0.032529 0.120056 0.517000 718657.000000 1.000000 4.285660 -28.219696 10.120717 
-0.032529 0.120612 0.517000 719937.000000 1.000000 4.285660 -28.152992 10.179182 
-0.032529 0.121168 0.517000 721217.000000 1.000000 4.285660 -28.086857 10.237619 
-0.031973 0.121724 0.517000 722498.000000 1.000000 4.224322 -27.776903 10.296028 
-0.031973 0.122280 0.517000 723778.000000 1.000000 4.224322 -27.712856 10.354409 
-0.031417 0.122836 0.517000 725059.000000 1.000000 4.162975 -27.406359 10.412763 
-0.031417 0.123392 0.517000 726339.000000 1.000000 4.162975 -27.344351 10.471087 
-0.031478 0.124188 0.518000 727619.000000 1.000000 4.162975 -27.282864 10.529384 
-0.030862 0.124505 0.517000 728900.000000 1.000000 4.101621 -26.981251 10.587652 
-0.030921 0.125303 0.518000 730180.000000 1.000000 4.101620 -26.921736 10.645891 
-0.030921 0.125860 0.518000 731460.000000 1.000000 4.101620 -26.862719 10.704102 
-0.030306 0.126173 0.517000 732741.000000 1.000000 4.040258 -26.565878 10.762284 
-0.030365 0.126974 0.518000 734021.000000 1.000000 4.040258 -26.508764 10.820437 
-0.029751 0.127285 0.517000 735302.000000 1.000000 3.978888 -26.215200 10.878563 
-0.029751 0.127841 0.517000 736582.000000 1.000000 3.978888 -26.159948 10.936658 
-0.029808 0.128646 0.518000 737862.000000 1.000000 3.978888 -26.105152 10.994725 
-0.029195 0.128954 0.517000 739143.000000 1.000000 3.917510 -25.816183 11.052762 
-0.029251 0.129760 0.518000 740423.000000 1.000000 3.917510 -25.763187 11.110768 
-0.029308 0.130569 0.519000 741703.000000 1.000000 3.917510 -25.710623 11.168747 
-0.028695 0.130875 0.518000 742984.000000 1.000000 3.856125 -25.426147 11.226696 
-0.028750 0.131686 0.519000 744264.000000 1.000000 3.856124 -25.375322 11.284615 
-0.028138 0.131989 0.518000 745545.000000 1.000000 3.794732 -25.093948 11.342505 
-0.028192 0.132802 0.519000 746825.000000 1.000000 3.794732 -25.044825 11.400365 
-0.028192 0.133361 0.519000 748105.000000 1.000000 3.794732 -24.996094 11.458194 
-0.027634 0.133919 0.519000 749386.000000 1.000000 3.733332 -24.719044 11.515996 
-0.027634 0.134477 0.519000 750666.000000 1.000000 3.733332 -24.671959 11.573765 
-0.027077 0.135035 0.519000 751947.000000 1.000000 3.671926 -24.397907 11.631505 
-0.027077 0.135594 0.519000 753227.000000 1.000000 3.671926 -24.352425 11.689216 
-0.027129 0.136414 0.520000 754507.000000 1.000000 3.671926 -24.307302 11.746894 
-0.026519 0.136710 0.519000 755788.000000 1.000000 3.610512 -24.037415 11.804543 
-0.025911 0.137004 0.518000 757069.000000 1.000000 3.549092 -23.769236 11.862160 
-0.025911 0.137561 0.518000 758349.000000 1.000000 3.549092 -23.726852 11.919746 
-0.025354 0.138118 0.518000 759630.000000 1.000000 3.487665 -23.461550 11.977304 
-0.025403 0.138943 0.519000 760910.000000 1.000000 3.487665 -23.420660 12.034830 
-0.024798 0.139233 0.518000 762191.000000 1.000000 3.426232 -23.158195 12.092325 
-0.024241 0.139790 0.518000 763472.000000 1.000000 3.364792 -22.897398 12.149789 
-0.024241 0.140347 0.518000 764752.000000 1.000000 3.364792 -22.859100 12.207221 
-0.023730 0.141176 0.519000 766033.000000 1.000000 3.303346 -22.601084 12.264623 
-0.023776 0.142008 0.520000 767313.000000 1.000000 3.303347 -22.564188 12.321995 
-0.023217 0.142567 0.520000 768594.000000 1.000000 3.241895 -22.308916 12.379333 
-0.022658 0.143127 0.520000 769875.000000 1.000000 3.180437 -22.055271 12.436641 
-0.022702 0.143962 0.521000 771155.000000 1.000000 3.180437 -22.020823 12.493917 
-0.022142 0.144523 0.521000 772436.000000 1.000000 3.118973 -21.769865 12.551161 
-0.021582 0.145083 0.521000 773717.000000 1.000000 3.057505 -21.520515 12.608374 
-0.021623 0.145923 0.522000 774997.000000 1.000000 3.057505 -21.488426 12.665555 
-0.021022 0.146204 0.521000 776278.000000 1.000000 2.996030 -21.241707 12.722704 
-0.020462 0.146764 0.521000 777559.000000 1.000000 2.934550 -20.996572 12.779821 
-0.020462 0.147325 0.521000 778839.000000 1.000000 2.934550 -20.966761 12.836906 
-0.019864 0.147601 0.520000 780120.000000 1.000000 2.873065 -20.724203 12.893958 
-0.019268 0.147876 0.519000 781401.000000 1.000000 2.811575 -20.483202 12.950979 
-0.018674 0.148148 0.518000 782682.000000 1.000000 2.750080 -20.243752 13.007968 
-0.018674 0.148705 0.518000 783962.000000 1.000000 2.750080 -20.217113 13.064923 
-0.018082 0.148974 0.517000 785243.000000 1.000000 2.688581 -19.980169 13.121846 
-0.018117 0.149820 0.518000 786523.000000 1.000000 2.688581 -19.954679 13.178738 
-0.017527 0.150087 0.517000 787804.000000 1.000000 2.627076 -19.720203 13.235597 
-0.016971 0.150643 0.517000 789085.000000 1.000000 2.565567 -19.487238 13.292421 
-0.017004 0.151491 0.518000 790365.000000 1.000000 2.565567 -19.463795 13.349214 
-0.016447 0.152049 0.518000 791646.000000 1.000000 2.504054 -19.233244 13.405973 
-0.015890 0.152606 0.518000 792927.000000 1.000000 2.442537 -19.004181 13.462701 
-0.015334 0.153163 0.518000 794208.000000 1.000000 2.381016 -18.776594 13.519394 
-0.014748 0.152867 0.517000 794209.000000 1.000000 2.319490 -18.570332 13.519395 
-0.014165 0.152572 0.516000 794210.000000 1.000000 2.257961 -18.363926 13.519394 
-0.013611 0.153127 0.516000 795491.000000 1.000000 2.196429 -18.139000 13.576055 
-0.013031 0.152830 0.515000 795492.000000 1.000000 2.134892 -17.933062 13.576054 
-0.012477 0.152830 0.515000 795493.000000 1.000000 2.073353 -17.726997 13.576054 
-0.011924 0.153384 0.515000 796774.000000 1.000000 2.011810 -17.504763 13.632682 
-0.011370 0.153384 0.515000 796775.000000 1.000000 1.950264 -17.299196 13.632682 
-0.010796 0.153086 0.514000 796776.000000 1.000000 1.888716 -17.093521 13.632682 
-0.010244 0.153086 0.514000 796777.000000 1.000000 1.827164 -16.887741 13.632682 
-0.009691 0.153639 0.514000 798058.000000 1.000000 1.765610 -16.668863 13.689277 
-0.009139 0.153639 0.514000 798059.000000 1.000000 1.704053 -16.463627 13.689277 
-0.008570 0.153340 0.513000 798060.000000 1.000000 1.642494 -16.258303 13.689275 
-0.008018 0.153340 0.513000 798061.000000 1.000000 1.580933 -16.052896 13.689275 
-0.007467 0.153340 0.513000 798062.000000 1.000000 1.519370 -15.847414 13.689275 
-0.006902 0.153041 0.512000 798063.000000 1.000000 1.457805 -15.641859 13.689275 
-0.006352 0.153041 0.512000 798064.000000 1.000000 1.396238 -15.436237 13.689275 
-0.005813 0.153340 0.513000 798065.000000 1.000000 1.334669 -15.230555 13.689275 
-0.005262 0.153340 0.513000 798066.000000 1.000000 1.273099 -15.024817 13.689275 
-0.004710 0.153340 0.513000 798067.000000 1.000000 1.211528 -14.819027 13.689275 
-0.004159 0.153340 0.513000 798068.000000 1.000000 1.149955 -14.613192 13.689275 
-0.003608 0.153340 0.513000 798069.000000 1.000000 1.088381 -14.407317 13.689275 
-0.003056 0.153340 0.513000 798070.000000 1.000000 1.026807 -14.201407 13.689275 
-0.002505 0.153340 0.513000 798071.000000 1.000000 0.965231 -13.995468 13.689275 
-0.001954 0.153340 0.513000 798072.000000 1.000000 0.903655 -13.789505 13.689275 
-0.001402 0.153340 0.513000 798073.000000 1.000000 0.842078 -13.583523 13.689275 
-0.000851 0.153340 0.513000 798074.000000 1.000000 0.780501 -13.377526 13.689275 
-0.000300 0.153340 0.513000 798075.000000 1.000000 0.718924 -13.171522 13.689275 
0.000252 0.153340 0.513000 798076.000000 1.000000 0.657347 -12.965515 13.689275 
0.000803 0.153340 0.513000 798077.000000 1.000000 0.595770 -12.759511 13.689275 
0.001354 0.153340 0.513000 798078.000000 1.000000 0.534193 -12.553514 13.689275 
0.001906 0.153340 0.513000 798079.000000 1.000000 0.472616 -12.347530 13.689275 
0.002457 0.153340 0.513000 798080.000000 1.000000 0.411040 -12.141565 13.689275 
0.003008 0.153340 0.513000 798081.000000 1.000000 0.349465 -11.935624 13.689275 
0.003560 0.153340 0.513000 798082.000000 1.000000 0.287890 -11.729712 13.689275 
0.004111 0.153340 0.513000 798083.000000 1.000000 0.226316 -11.523833 13.689275 
0.004662 0.153340 0.513000 798084.000000 1.000000 0.164743 -11.317995 13.689275 
0.005214 0.153340 0.513000 798085.000000 1.000000 0.103172 -11.112201 13.689275 
0.005765 0.153340 0.513000 798086.000000 1.000000 0.041601 -10.906458 13.689275 
0.006316 0.153340 0.513000 798087.000000 1.000000 -0.019967 -10.700769 13.689275 
0.006868 0.153340 0.513000 798088.000000 1.000000 -0.081534 -10.495143 13.689275 
0.007419 0.153340 0.513000 798089.000000 1.000000 -0.143100 -10.289582 13.689275 
0.007970 0.153340 0.513000 798090.000000 1.000000 -0.204663 -10.084092 13.689275 
0.008522 0.153340 0.513000 798091.000000 1.000000 -0.266225 -9.878679 13.689275 
0.009091 0.153639 0.514000 798092.000000 1.000000 -0.327784 -9.673348 13.689277 
0.009643 0.153639 0.514000 798093.000000 1.000000 -0.389341 -9.468104 13.689277 
0.010196 0.153639 0.514000 798094.000000 1.000000 -0.450895 -9.262953 13.689277 
0.010748 0.153639 0.514000 798095.000000 1.000000 -0.512447 -9.057899 13.689277 
0.011322 0.153938 0.515000 798096.000000 1.000000 -0.573996 -8.852946 13.689276 
0.011899 0.154237 0.516000 798097.000000 1.000000 -0.635542 -8.648103 13.689276 
0.012454 0.154237 0.516000 798098.000000 1.000000 -0.697085 -8.443372 13.689276 
0.013008 0.153682 0.516000 796819.000000 1.000000 -0.758624 -8.221430 13.632682 
0.013589 0.153980 0.517000 796820.000000 1.000000 -0.820161 -8.016212 13.632682 
0.014172 0.154277 0.518000 796821.000000 1.000000 -0.881694 -7.811125 13.632682 
0.014729 0.153720 0.518000 795542.000000 1.000000 -0.943223 -7.586524 13.576056 
0.015256 0.152867 0.517000 794263.000000 1.000000 -1.004749 -7.360460 13.519395 
0.015842 0.153163 0.518000 794264.000000 1.000000 -1.066270 -7.154333 13.519394 
0.016399 0.152606 0.518000 792985.000000 1.000000 -1.127788 -6.926215 13.462701 
0.016923 0.151755 0.517000 791706.000000 1.000000 -1.189302 -6.696622 13.405973 
0.017512 0.152049 0.518000 791707.000000 1.000000 -1.250811 -6.489502 13.405973 
0.018104 0.151784 0.519000 790428.000000 1.000000 -1.312316 -6.257860 13.349214 
0.018626 0.150934 0.518000 789149.000000 1.000000 -1.373816 -6.024733 13.292422 
