# .PCD v.7 - Point Cloud Data file format
VERSION .7
FIELDS x y z par par par par par 
SIZE 4 4 4 4 4 4 4 4 
TYPE F F F F F F F F 
COUNT 1 1 1 1 1 1 1 1 
WIDTH 559
HEIGHT 1
POINTS 559
DATA ascii
-16.022051 -73.040202 692.000031 316774.000000 0.000000 5.801166 67.219086 -2.870816 
-16.765760 -72.295830 692.000031 318053.000000 0.000000 5.862708 67.903069 -2.809856 
-17.534774 -71.654856 693.000019 319332.000000 0.000000 5.924248 68.597397 -2.748883 
-17.484169 -70.704766 691.000044 320612.000000 0.000000 5.924248 68.736389 -2.687896 
-18.253181 -70.062712 692.000031 321891.000000 0.000000 5.985784 69.449150 -2.626895 
-18.996892 -68.573959 692.000031 324450.000000 0.000000 6.047317 70.330894 -2.504855 
-18.914536 -67.535527 689.000010 325730.000000 0.000000 6.047317 70.492546 -2.443816 
-19.683549 -66.891320 690.000057 327009.000000 0.000000 6.108846 71.243820 -2.382763 
-19.655021 -66.053227 689.000010 328289.000000 0.000000 6.108846 71.417763 -2.321699 
-19.655021 -65.312080 689.000010 329569.000000 0.000000 6.108846 71.595329 -2.260622 
-20.425111 -64.664654 690.000057 330848.000000 0.000000 6.170371 72.376038 -2.199533 
-20.425111 -63.922435 690.000057 332128.000000 0.000000 6.170371 72.566910 -2.138431 
-20.425111 -63.180208 690.000057 333408.000000 0.000000 6.170371 72.761848 -2.077317 
-21.197347 -62.528476 691.000044 334687.000000 0.000000 6.231893 73.573509 -2.016191 
-21.166671 -61.695762 690.000057 335967.000000 0.000000 6.231893 73.782829 -1.955054 
-21.166671 -60.953539 690.000057 337247.000000 0.000000 6.231893 73.996712 -1.893904 
-21.135993 -60.124051 689.000010 338527.000000 0.000000 6.231893 74.215286 -1.832744 
-21.939984 -59.555281 691.000044 339806.000000 0.000000 6.293410 75.070328 -1.771572 
-21.908233 -58.726866 690.000057 341086.000000 0.000000 6.293410 75.304871 -1.710388 
-21.908233 -57.984643 690.000057 342366.000000 0.000000 6.293410 75.544670 -1.649193 
-21.844730 -57.076499 688.000023 343646.000000 0.000000 6.293410 75.789894 -1.587988 
-22.649795 -56.500200 690.000057 344925.000000 0.000000 6.354923 76.691544 -1.526772 
-22.649795 -55.757977 690.000057 346205.000000 0.000000 6.354923 76.954475 -1.465544 
-22.616968 -54.936018 689.000010 347485.000000 0.000000 6.354923 77.223480 -1.404307 
-22.584142 -54.116212 688.000023 348765.000000 0.000000 6.354923 77.498772 -1.343059 
-23.391355 -53.531308 690.000057 350044.000000 0.000000 6.416432 78.450371 -1.281800 
-23.391355 -52.789085 690.000057 351324.000000 0.000000 6.416432 78.745285 -1.220532 
-23.357453 -51.971428 689.000010 352604.000000 0.000000 6.416432 79.047211 -1.159253 
-23.323553 -51.155929 688.000023 353884.000000 0.000000 6.416432 79.356384 -1.097965 
-23.323553 -50.415851 688.000023 355164.000000 0.000000 6.416432 79.673050 -1.036666 
-23.357453 -49.747981 689.000010 356444.000000 0.000000 6.416432 79.997475 -0.975358 
-24.167892 -49.149092 691.000044 357723.000000 0.000000 6.477936 81.031235 -0.914041 
-24.167892 -48.405796 691.000044 359003.000000 0.000000 6.477936 81.378578 -0.852715 
-24.237841 -47.800448 693.000019 360283.000000 0.000000 6.477936 81.734573 -0.791379 
-24.237841 -47.054999 693.000019 361563.000000 0.000000 6.477936 82.099503 -0.730034 
-24.097940 -46.042249 689.000010 362843.000000 0.000000 6.477936 82.473686 -0.668680 
-24.062965 -45.235351 688.000023 364123.000000 0.000000 6.477936 82.857452 -0.607317 
-24.946578 -44.009600 692.000031 366682.000000 0.000000 6.539436 84.393158 -0.484566 
-24.802377 -43.015137 688.000023 367962.000000 0.000000 6.539436 84.814285 -0.423178 
-24.766328 -42.213619 687.000036 369242.000000 0.000000 6.539436 85.246429 -0.361782 
-24.766328 -41.474622 687.000036 370522.000000 0.000000 6.539436 85.689980 -0.300377 
-24.766328 -40.735628 687.000036 371802.000000 0.000000 6.539436 86.145332 -0.238965 
-24.766328 -39.996631 687.000036 373082.000000 0.000000 6.539436 86.612907 -0.177545 
-25.616039 -39.429065 690.000057 374361.000000 0.000000 6.600931 87.857422 -0.116117 
-25.578912 -38.630772 689.000010 375641.000000 0.000000 6.600931 88.356758 -0.054682 
-25.578912 -37.889626 689.000010 376921.000000 0.000000 6.600931 88.869583 0.006761 
-25.616039 -37.202399 690.000057 378201.000000 0.000000 6.600931 89.396385 0.068211 
-25.616039 -36.460176 690.000057 379481.000000 0.000000 6.600931 89.937637 0.129668 
-24.766328 -35.562653 687.000036 380762.000000 0.000000 6.539436 89.700577 0.191133 
-24.802377 -34.874346 688.000023 382042.000000 0.000000 6.539436 90.266846 0.252604 
-24.802377 -34.134276 688.000023 383322.000000 0.000000 6.539436 90.849297 0.314081 
-24.802377 -33.394203 688.000023 384602.000000 0.000000 6.539436 91.448517 0.375565 
-24.838427 -32.701593 689.000010 385882.000000 0.000000 6.539436 92.065102 0.437056 
-24.838427 -31.960446 689.000010 387162.000000 0.000000 6.539436 92.699661 0.498553 
-24.838427 -31.219298 689.000010 388442.000000 0.000000 6.539436 93.352844 0.560056 
-24.838427 -30.478152 689.000010 389722.000000 0.000000 6.539436 94.025291 0.621564 
-24.874479 -29.780164 690.000057 391002.000000 0.000000 6.539436 94.717682 0.683079 
-24.874479 -29.037943 690.000057 392282.000000 0.000000 6.539436 95.430702 0.744600 
-24.027990 -28.172694 687.000036 393563.000000 0.000000 6.477936 95.306961 0.806126 
-24.027990 -27.433695 687.000036 394843.000000 0.000000 6.477936 96.060410 0.867657 
-24.062965 -26.733557 688.000023 396123.000000 0.000000 6.477936 96.837173 0.929194 
-24.237841 -26.182391 693.000019 397403.000000 0.000000 6.477936 97.638062 0.990736 
-24.237841 -21.709690 693.000019 405083.000000 0.000000 6.477936 102.996071 1.360087 
-24.237841 -20.964241 693.000019 406363.000000 0.000000 6.477936 103.988899 1.421661 
-23.391355 -20.131264 690.000057 407644.000000 0.000000 6.416432 104.130470 1.483239 
-23.391355 -19.389041 690.000057 408924.000000 0.000000 6.416432 105.191429 1.544821 
-23.391355 -18.646818 690.000057 410204.000000 0.000000 6.416432 106.285988 1.606406 
-23.391355 -17.904595 690.000057 411484.000000 0.000000 6.416432 107.414932 1.667995 
-23.391355 -17.162371 690.000057 412764.000000 0.000000 6.416432 108.578979 1.729588 
-23.391355 -16.420146 690.000057 414044.000000 0.000000 6.416432 109.778793 1.791183 
-22.584142 -15.632480 688.000023 415325.000000 0.000000 6.354923 110.156158 1.852782 
-22.616968 -14.914054 689.000010 416605.000000 0.000000 6.354923 111.445076 1.914384 
-22.616968 -14.172906 689.000010 417885.000000 0.000000 6.354923 112.773399 1.975989 
-21.844730 -13.412265 688.000023 419166.000000 0.000000 6.293410 113.297523 2.037596 
-21.844730 -12.672194 688.000023 420446.000000 0.000000 6.293410 114.728539 2.099206 
-21.876480 -11.949464 689.000010 421726.000000 0.000000 6.293410 116.202248 2.160819 
-21.105317 -11.192050 688.000023 423007.000000 0.000000 6.231893 116.909889 2.222434 
-21.166671 -10.482362 690.000057 424287.000000 0.000000 6.231893 118.500710 2.284051 
-21.228023 -9.768371 692.000031 425567.000000 0.000000 6.231893 120.136505 2.345670 
-20.454712 -9.010957 691.000044 426848.000000 0.000000 6.170371 121.071655 2.407291 
-20.513915 -8.291586 693.000019 428128.000000 0.000000 6.170371 122.838463 2.468914 
-19.740604 -7.535247 692.000031 429409.000000 0.000000 6.108846 123.954178 2.530538 
-19.769130 -6.800686 693.000019 430689.000000 0.000000 6.108846 125.863197 2.592163 
-18.996892 -6.046498 692.000031 431970.000000 0.000000 6.047317 127.190994 2.653790 
-18.226804 -5.294462 691.000044 433251.000000 0.000000 5.985784 128.649338 2.715418 
-18.279558 -4.564336 693.000019 434531.000000 0.000000 5.985784 130.826828 2.777048 
-17.534774 -3.818885 693.000019 435812.000000 0.000000 5.924248 132.560150 2.838677 
-16.765760 -3.069000 692.000031 437093.000000 0.000000 5.862708 134.473450 2.900308 
-16.765760 -2.324626 692.000031 438373.000000 0.000000 5.862708 136.952774 2.961940 
-15.998898 -1.577968 691.000044 439654.000000 0.000000 5.801166 139.213837 3.023571 
-16.022051 -0.835877 692.000031 440934.000000 0.000000 5.801166 141.860245 3.085203 
-14.429609 0.648155 687.000036 443496.000000 0.000000 5.678071 147.418594 3.208468 
-14.450613 1.389170 688.000023 444776.000000 0.000000 5.678071 150.337784 3.270100 
-13.691274 2.126148 687.000036 446057.000000 0.000000 5.616519 153.673767 3.331732 
-13.691274 2.126148 687.000036 446057.000000 0.000000 5.616519 153.673767 3.331732 
-12.990645 3.614632 689.000010 448618.000000 0.000000 5.554965 160.395859 3.454994 
-13.047208 4.374745 692.000031 449898.000000 0.000000 5.554965 163.383057 3.516624 
-12.285719 5.111722 691.000044 451179.000000 0.000000 5.493409 167.437424 3.578254 
-12.285719 5.855021 691.000044 452459.000000 0.000000 5.493409 170.327820 3.639882 
-11.526378 6.588771 690.000057 453740.000000 0.000000 5.431850 174.600067 3.701509 
-11.559787 7.352243 692.000031 455020.000000 0.000000 5.431850 177.303818 3.763135 
-10.800446 8.084917 691.000044 456301.000000 0.000000 5.370289 -178.335800 3.824760 
-10.831706 8.853768 693.000019 457581.000000 0.000000 5.370289 -175.890961 3.886383 
-10.072365 9.585367 692.000031 458862.000000 0.000000 5.308725 -171.572464 3.948004 
-9.315175 10.314815 691.000044 460143.000000 0.000000 5.247160 -167.238098 4.009624 
-9.328656 11.074116 692.000031 461423.000000 0.000000 5.247160 -165.263550 4.071241 
-8.584945 11.818490 692.000031 462704.000000 0.000000 5.185594 -161.147949 4.132856 
-7.841234 12.562864 692.000031 463985.000000 0.000000 5.124025 -157.124069 4.194469 
-7.852565 13.326470 693.000019 465265.000000 0.000000 5.124025 -155.661850 4.256080 
-7.107780 14.071919 693.000019 466546.000000 0.000000 5.062455 -151.951828 4.317688 
-6.362995 14.817370 693.000019 467827.000000 0.000000 5.000883 -148.393356 4.379294 
-4.866392 16.284738 692.000031 470389.000000 0.000000 4.877737 -141.791107 4.502496 
-3.378971 17.773487 692.000031 472951.000000 0.000000 4.754587 -135.917526 4.625686 
-2.639069 18.544620 693.000019 474232.000000 0.000000 4.693011 -133.252640 4.687276 
-1.894284 19.290071 693.000019 475513.000000 0.000000 4.631434 -130.761780 4.748862 
-0.404713 20.035520 693.000019 476795.000000 0.000000 4.508280 -126.310516 4.810445 
0.340072 20.780971 693.000019 478076.000000 0.000000 4.446702 -124.215775 4.872024 
1.081726 21.464298 691.000044 479357.000000 0.000000 4.385125 -122.268242 4.933599 
1.824362 21.464298 691.000044 479358.000000 0.000000 4.323548 -120.295120 4.933599 
2.570713 22.239735 692.000031 480639.000000 0.000000 4.261972 -118.559700 4.995170 
2.570713 22.239735 692.000031 480639.000000 0.000000 4.261972 -118.559700 4.995170 
4.052269 22.950895 691.000044 481921.000000 0.000000 4.138820 -115.140221 5.056736 
4.794905 23.694193 691.000044 483202.000000 0.000000 4.077245 -113.713074 5.118298 
7.787924 26.744574 693.000019 488326.000000 0.000000 3.830957 -108.917938 5.364500 
8.532709 27.490024 693.000019 489607.000000 0.000000 3.769388 -107.909340 5.426038 
9.277495 28.235473 693.000019 490888.000000 0.000000 3.707821 -106.964035 5.487571 
10.022280 28.980924 693.000019 492169.000000 0.000000 3.646256 -106.076729 5.549098 
10.767065 28.980924 693.000019 492170.000000 0.000000 3.584692 -104.772148 5.549098 
11.511851 29.726373 693.000019 493451.000000 0.000000 3.523131 -103.983894 5.610620 
12.982660 30.427855 692.000031 494733.000000 0.000000 3.400015 -102.046814 5.672136 
13.686699 30.339913 690.000057 494734.000000 0.000000 3.338461 -100.872604 5.672136 
14.449170 31.127183 691.000044 496015.000000 0.000000 3.276909 -100.252686 5.733646 
15.169823 31.082137 690.000057 496016.000000 0.000000 3.215360 -99.138344 5.733646 
15.934443 31.870481 691.000044 497297.000000 0.000000 3.153814 -98.589409 5.795151 
16.652944 31.824362 690.000057 497298.000000 0.000000 3.092271 -97.531303 5.795151 
17.419714 32.613780 691.000044 498579.000000 0.000000 3.030731 -97.045685 5.856649 
18.136065 32.566581 690.000057 498580.000000 0.000000 2.969195 -96.040230 5.856649 
18.904986 33.357076 691.000044 499861.000000 0.000000 2.907662 -95.611092 5.918141 
19.619189 33.308804 690.000057 499862.000000 0.000000 2.846132 -94.654839 5.918141 
20.331239 33.260528 689.000010 499863.000000 0.000000 2.784607 -93.717026 5.918141 
21.102311 34.051027 690.000057 501144.000000 0.000000 2.723085 -93.365738 5.979627 
21.843871 34.051027 690.000057 501145.000000 0.000000 2.661567 -92.472977 5.979627 
22.618165 34.100376 691.000044 501146.000000 0.000000 2.600054 -91.597710 5.979627 
23.360800 34.843676 691.000044 502427.000000 0.000000 2.538545 -91.313599 6.041106 
23.998789 34.692403 688.000023 502428.000000 0.000000 2.477040 -90.479408 6.041107 
24.738202 34.692403 688.000023 502429.000000 0.000000 2.415540 -89.661682 6.041107 
25.514644 35.483971 689.000010 503710.000000 0.000000 2.354044 -89.435402 6.102579 
26.178919 35.380974 687.000036 503711.000000 0.000000 2.292554 -88.655014 6.102579 
26.878074 35.329472 686.000049 503712.000000 0.000000 2.231069 -87.890038 6.102579 
27.695848 36.172543 688.000023 504993.000000 0.000000 2.169588 -87.713501 6.164044 
28.393930 36.119968 687.000036 504994.000000 0.000000 2.108113 -86.982399 6.164045 
29.132266 36.119968 687.000036 504995.000000 0.000000 2.046644 -86.265686 6.164045 
29.957563 36.966268 689.000010 506276.000000 0.000000 1.985180 -86.131912 6.225503 
30.653493 36.912616 688.000023 506277.000000 0.000000 1.923722 -85.445915 6.225503 
31.347279 36.858965 687.000036 506278.000000 0.000000 1.862269 -84.773293 6.225503 
32.038912 36.805313 686.000049 506279.000000 0.000000 1.800823 -84.113838 6.225503 
32.967288 37.762143 690.000057 507560.000000 0.000000 1.739383 -84.031548 6.286955 
33.659995 37.707414 689.000010 507561.000000 0.000000 1.677949 -83.399216 6.286955 
34.400478 37.707414 689.000010 507562.000000 0.000000 1.616522 -82.779114 6.286955 
35.242975 37.816871 691.000044 507563.000000 0.000000 1.555101 -82.171005 6.286955 
35.933532 38.504366 690.000057 508844.000000 0.000000 1.493687 -82.131332 6.348400 
36.621939 38.448561 689.000010 508845.000000 0.000000 1.432279 -81.547165 6.348400 
37.308197 38.392760 688.000023 508846.000000 0.000000 1.370879 -80.974129 6.348400 
37.992310 38.336955 687.000036 508847.000000 0.000000 1.309486 -80.412018 6.348400 
38.730647 38.336955 687.000036 508848.000000 0.000000 1.248100 -79.860626 6.348400 
39.411534 38.281154 686.000049 508849.000000 0.000000 1.186722 -79.319756 6.348400 
40.090270 38.225349 685.000062 508850.000000 0.000000 1.125351 -78.789192 6.348400 
40.826458 38.225349 685.000062 508851.000000 0.000000 1.063987 -78.268738 6.348400 
41.562643 38.225349 685.000062 508852.000000 0.000000 1.002632 -77.758194 6.348400 
42.298831 38.225349 685.000062 508853.000000 0.000000 0.941285 -77.257355 6.348400 
43.097842 38.281154 686.000049 508854.000000 0.000000 0.879946 -76.766022 6.348400 
43.835107 38.281154 686.000049 508855.000000 0.000000 0.818614 -76.283989 6.348400 
44.637341 38.336955 687.000036 508856.000000 0.000000 0.757292 -75.811073 6.348400 
45.441724 38.392760 688.000023 508857.000000 0.000000 0.695978 -75.347076 6.348400 
46.181135 38.392760 688.000023 508858.000000 0.000000 0.634672 -74.891808 6.348400 
46.988748 38.448561 689.000010 508859.000000 0.000000 0.573376 -74.445076 6.348400 
47.798511 38.504366 690.000057 508860.000000 0.000000 0.512088 -74.006691 6.348400 
48.540071 38.504366 690.000057 508861.000000 0.000000 0.450809 -73.576492 6.348400 
49.281634 38.504366 690.000057 508862.000000 0.000000 0.389540 -73.154274 6.348400 
50.023194 38.504366 690.000057 508863.000000 0.000000 0.328280 -72.739876 6.348400 
50.691176 38.448561 689.000010 508864.000000 0.000000 0.267029 -72.333130 6.348400 
51.133085 37.488505 685.000062 507585.000000 0.000000 0.205788 -71.400528 6.286955 
51.869269 37.488505 685.000062 507586.000000 0.000000 0.144557 -71.010826 6.286955 
52.605454 37.488505 685.000062 507587.000000 0.000000 0.083336 -70.628326 6.286955 
53.341642 37.488505 685.000062 507588.000000 0.000000 0.022125 -70.252861 6.286955 
54.156777 37.543233 686.000049 507589.000000 0.000000 -0.039076 -69.884270 6.286955 
54.894038 37.543233 686.000049 507590.000000 0.000000 -0.100267 -69.522392 6.286955 
55.631299 37.543233 686.000049 507591.000000 0.000000 -0.161447 -69.167076 6.286955 
56.450732 37.597958 687.000036 507592.000000 0.000000 -0.222617 -68.818169 6.286955 
57.189070 37.597958 687.000036 507593.000000 0.000000 -0.283776 -68.475533 6.286955 
57.843085 37.543233 686.000049 507594.000000 0.000000 -0.344924 -68.139023 6.286955 
58.580350 37.543233 686.000049 507595.000000 0.000000 -0.406061 -67.808487 6.286955 
59.404079 37.597958 687.000036 507596.000000 0.000000 -0.467187 -67.483803 6.286955 
60.054872 37.543233 686.000049 507597.000000 0.000000 -0.528301 -67.164825 6.286955 
60.792133 37.543233 686.000049 507598.000000 0.000000 -0.589404 -66.851433 6.286955 
61.619092 37.597958 687.000036 507599.000000 0.000000 -0.650496 -66.543488 6.286955 
62.357426 37.597958 687.000036 507600.000000 0.000000 -0.711576 -66.240883 6.286955 
63.095763 37.597958 687.000036 507601.000000 0.000000 -0.772644 -65.943489 6.286955 
63.834101 37.597958 687.000036 507602.000000 0.000000 -0.833701 -65.651176 6.286955 
64.666428 37.652686 688.000023 507603.000000 0.000000 -0.894745 -65.363853 6.286955 
65.500900 37.707414 689.000010 507604.000000 0.000000 -0.955776 -65.081390 6.286955 
66.337541 37.762143 690.000057 507605.000000 0.000000 -1.016796 -64.803680 6.286955 
67.176312 37.816871 691.000044 507606.000000 0.000000 -1.077803 -64.530624 6.286955 
68.017237 37.871599 692.000031 507607.000000 0.000000 -1.138798 -64.262115 6.286955 
68.760946 37.871599 692.000031 507608.000000 0.000000 -1.199779 -63.998051 6.286955 
69.605097 37.926324 693.000019 507609.000000 0.000000 -1.260748 -63.738331 6.286955 
83.514296 34.100376 691.000044 501228.000000 0.000000 -2.416527 -57.364380 5.979627 
85.122578 33.405352 692.000031 499950.000000 0.000000 -2.537877 -56.580254 5.918141 
85.866287 33.405352 692.000031 499951.000000 0.000000 -2.598529 -56.411297 5.918141 
86.234517 32.519381 689.000010 498672.000000 0.000000 -2.659164 -55.814972 5.856649 
87.101251 32.566581 690.000057 498673.000000 0.000000 -2.719784 -55.653751 5.856649 
87.460883 31.685993 687.000036 497394.000000 0.000000 -2.780387 -55.068134 5.795151 
88.327594 31.732112 688.000023 497395.000000 0.000000 -2.840974 -54.914383 5.795151 
89.067012 31.732112 688.000023 497396.000000 0.000000 -2.901545 -54.762890 5.795151 
89.414835 30.856904 685.000062 496117.000000 0.000000 -2.962099 -54.192776 5.733646 
90.282619 30.901950 686.000049 496118.000000 0.000000 -3.022636 -54.048370 5.733646 
91.152564 30.946996 687.000036 496119.000000 0.000000 -3.083156 -53.906055 5.733646 
91.890909 30.208001 687.000036 494840.000000 0.000000 -3.143661 -53.350952 5.672136 
92.898898 30.295942 689.000010 494841.000000 0.000000 -3.204146 -53.215359 5.672136 
94.047107 30.427855 692.000031 494842.000000 0.000000 -3.264616 -53.081699 5.672136 
94.790809 29.683478 692.000031 493563.000000 0.000000 -3.325067 -52.541115 5.610620 
99.396504 25.999121 693.000019 487169.000000 0.000000 -3.687407 -49.811741 5.302957 
99.996790 25.217231 692.000031 485890.000000 0.000000 -3.747734 -49.307076 5.241408 
100.594930 24.437493 691.000044 484611.000000 0.000000 -3.808043 -48.807655 5.179856 
101.337560 23.694193 691.000044 483332.000000 0.000000 -3.868333 -48.313477 5.118298 
102.227919 22.984110 692.000031 482053.000000 0.000000 -3.928604 -47.824535 5.056736 
103.120439 22.271873 693.000019 480774.000000 0.000000 -3.988858 -47.340809 4.995170 
109.078720 16.308270 693.000019 470542.000000 0.000000 -4.470191 -43.656574 4.502496 
109.078720 15.562820 693.000019 469262.000000 0.000000 -4.470191 -43.273193 4.440897 
109.078720 15.562820 693.000019 469262.000000 0.000000 -4.470191 -43.273193 4.440897 
110.089637 14.011003 690.000057 466704.000000 0.000000 -4.590327 -42.406300 4.317688 
110.991828 13.288010 691.000044 465425.000000 0.000000 -4.650366 -41.980305 4.256080 
115.517676 7.299120 687.000036 455192.000000 0.000000 -5.070063 -38.768806 3.763135 
116.425239 6.569673 688.000023 453913.000000 0.000000 -5.129937 -38.382988 3.701509 
115.917578 5.804181 685.000062 452633.000000 0.000000 -5.129937 -38.019810 3.639882 
116.994359 5.082132 687.000036 451354.000000 0.000000 -5.189790 -37.640625 3.578254 
116.653770 4.330492 685.000062 450074.000000 0.000000 -5.189790 -37.279305 3.516624 
117.732689 3.604140 687.000036 448795.000000 0.000000 -5.249620 -36.906754 3.454994 
117.389947 2.856802 685.000062 447515.000000 0.000000 -5.249620 -36.547386 3.393363 
118.471034 2.126148 687.000036 446236.000000 0.000000 -5.309431 -36.181465 3.331732 
118.298583 1.385132 686.000049 444956.000000 0.000000 -5.309430 -35.824146 3.270100 
119.382888 0.649099 688.000023 443677.000000 0.000000 -5.369219 -35.464832 3.208468 
119.035855 -0.090709 686.000049 442397.000000 0.000000 -5.369219 -35.109650 3.146836 
120.122299 -0.831045 688.000023 441118.000000 0.000000 -5.428985 -34.756927 3.085203 
121.037379 -1.573400 689.000010 439839.000000 0.000000 -5.488730 -34.408550 3.023571 
120.861709 -2.311188 688.000023 438559.000000 0.000000 -5.488730 -34.057804 2.961940 
122.484855 -3.073435 693.000019 437280.000000 0.000000 -5.548453 -33.715927 2.900308 
121.601127 -3.791332 688.000023 436000.000000 0.000000 -5.548453 -33.367496 2.838677 
123.229630 -4.564336 693.000019 434721.000000 0.000000 -5.608153 -33.032089 2.777048 
122.340530 -5.271475 688.000023 433441.000000 0.000000 -5.608153 -32.686047 2.715418 
123.258837 -6.020285 689.000010 432162.000000 0.000000 -5.667832 -32.357059 2.653790 
122.901052 -6.741806 687.000036 430882.000000 0.000000 -5.667832 -32.013466 2.592163 
122.543268 -7.459024 685.000062 429602.000000 0.000000 -5.667833 -31.670101 2.530538 
122.364365 -8.183903 684.000015 428322.000000 0.000000 -5.667833 -31.326988 2.468914 
122.185469 -8.906633 683.000028 427042.000000 0.000000 -5.667832 -30.984146 2.407291 
122.185469 -9.641325 683.000028 425762.000000 0.000000 -5.667832 -30.641605 2.345670 
123.099469 -10.391210 684.000015 424483.000000 0.000000 -5.727489 -30.328236 2.284051 
123.099469 -11.126980 684.000015 423203.000000 0.000000 -5.727489 -29.988375 2.222434 
123.099469 -11.862748 684.000015 421923.000000 0.000000 -5.727489 -29.648876 2.160819 
123.279445 -12.616938 685.000062 420643.000000 0.000000 -5.727489 -29.309767 2.099207 
123.279445 -13.353782 685.000062 419363.000000 0.000000 -5.727489 -28.971067 2.037596 
123.459414 -14.111197 686.000049 418083.000000 0.000000 -5.727489 -28.632801 1.975989 
123.999320 -14.914054 689.000010 416803.000000 0.000000 -5.727489 -28.294991 1.914384 
124.539234 -15.723366 692.000031 415523.000000 0.000000 -5.727489 -27.957659 1.852782 
125.282943 -16.467741 692.000031 414244.000000 0.000000 -5.787123 -27.665033 1.791183 
125.463992 -17.236989 693.000019 412964.000000 0.000000 -5.787124 -27.330650 1.729588 
126.026660 -20.189615 692.000031 407845.000000 0.000000 -5.846735 -26.051798 1.483239 
126.770362 -20.933989 692.000031 406566.000000 0.000000 -5.906324 -25.776501 1.421661 
126.403987 -21.615710 690.000057 405286.000000 0.000000 -5.906324 -25.449312 1.360087 
126.037583 -22.293126 688.000023 404006.000000 0.000000 -5.906323 -25.122763 1.298517 
126.592740 -22.999719 687.000036 402727.000000 0.000000 -5.965891 -24.855976 1.236952 
126.408473 -23.704164 686.000049 401447.000000 0.000000 -5.965891 -24.532530 1.175391 
126.224205 -24.406454 685.000062 400167.000000 0.000000 -5.965891 -24.209766 1.113835 
126.039922 -25.106592 684.000015 398887.000000 0.000000 -5.965890 -23.887705 1.052283 
126.039922 -25.842359 684.000015 397607.000000 0.000000 -5.965890 -23.566364 0.990736 
125.855654 -26.539272 683.000028 396327.000000 0.000000 -5.965890 -23.245760 0.929194 
125.671387 -27.234033 682.000041 395047.000000 0.000000 -5.965890 -22.925911 0.867657 
125.487119 -27.926644 681.000054 393767.000000 0.000000 -5.965890 -22.606833 0.806126 
125.487119 -28.659187 681.000054 392487.000000 0.000000 -5.965890 -22.288544 0.744600 
125.487119 -29.391728 681.000054 391207.000000 0.000000 -5.965890 -21.971062 0.683079 
125.302851 -30.080032 680.000007 389927.000000 0.000000 -5.965891 -21.654402 0.621565 
125.302851 -30.811498 680.000007 388647.000000 0.000000 -5.965891 -21.338579 0.560056 
125.118583 -31.496577 679.000020 387367.000000 0.000000 -5.965891 -21.023611 0.498553 
125.118583 -32.226972 679.000020 386087.000000 0.000000 -5.965891 -20.709509 0.437056 
125.118583 -32.957360 679.000020 384807.000000 0.000000 -5.965891 -20.396296 0.375565 
125.118583 -33.687752 679.000020 383527.000000 0.000000 -5.965891 -20.083979 0.314081 
125.118583 -34.418140 679.000020 382247.000000 0.000000 -5.965891 -19.772579 0.252604 
125.118583 -35.148531 679.000020 380967.000000 0.000000 -5.965891 -19.462105 0.191133 
125.118583 -35.878923 679.000020 379687.000000 0.000000 -5.965891 -19.152573 0.129668 
125.118583 -36.609314 679.000020 378407.000000 0.000000 -5.965891 -18.843998 0.068211 
125.118583 -37.339706 679.000020 377127.000000 0.000000 -5.965891 -18.536392 0.006761 
125.118583 -38.070094 679.000020 375847.000000 0.000000 -5.965891 -18.229771 -0.054681 
125.118583 -38.800485 679.000020 374567.000000 0.000000 -5.965891 -17.924143 -0.116117 
125.302851 -39.589092 680.000007 373287.000000 0.000000 -5.965891 -17.619524 -0.177545 
125.302851 -40.320560 680.000007 372007.000000 0.000000 -5.965891 -17.315924 -0.238965 
125.487119 -41.112401 681.000054 370727.000000 0.000000 -5.965890 -17.013353 -0.300377 
125.671387 -41.906387 682.000041 369447.000000 0.000000 -5.965890 -16.711830 -0.361782 
125.671387 -42.640008 682.000041 368167.000000 0.000000 -5.965890 -16.411358 -0.423178 
125.671387 -43.373626 682.000041 366887.000000 0.000000 -5.965890 -16.111954 -0.484567 
125.855654 -44.171914 683.000028 365607.000000 0.000000 -5.965890 -15.813625 -0.545946 
126.039922 -44.972356 684.000015 364327.000000 0.000000 -5.965890 -15.516383 -0.607317 
126.039922 -45.708124 684.000015 363047.000000 0.000000 -5.965890 -15.220238 -0.668680 
126.039922 -46.443895 684.000015 361767.000000 0.000000 -5.965890 -14.925198 -0.730034 
126.039922 -47.179662 684.000015 360487.000000 0.000000 -5.965890 -14.631273 -0.791379 
126.224205 -47.985487 685.000062 359207.000000 0.000000 -5.965891 -14.338474 -0.852715 
126.224205 -48.722330 685.000062 357927.000000 0.000000 -5.965891 -14.046808 -0.914041 
126.777008 -49.675781 688.000023 356647.000000 0.000000 -5.965891 -13.756284 -0.975358 
126.961261 -50.489131 689.000010 355367.000000 0.000000 -5.965890 -13.466907 -1.036666 
125.304803 -50.858509 684.000015 354086.000000 0.000000 -5.906323 -13.062143 -1.097965 
125.488013 -51.669713 685.000062 352806.000000 0.000000 -5.906324 -12.773889 -1.159253 
126.220778 -52.712575 689.000010 351526.000000 0.000000 -5.906324 -12.486823 -1.220532 
126.403987 -53.531308 690.000057 350246.000000 0.000000 -5.906324 -12.200954 -1.281800 
124.569699 -53.801585 684.000015 348965.000000 0.000000 -5.846735 -11.793823 -1.343059 
125.298187 -54.856285 688.000023 347685.000000 0.000000 -5.846735 -11.509225 -1.404307 
125.480294 -55.677164 689.000010 346405.000000 0.000000 -5.846735 -11.225857 -1.465544 
125.662431 -56.500200 690.000057 345125.000000 0.000000 -5.846735 -10.943729 -1.526772 
123.834588 -56.744657 684.000015 343844.000000 0.000000 -5.787123 -10.534665 -1.587988 
124.558769 -57.816569 688.000023 342564.000000 0.000000 -5.787123 -10.253951 -1.649193 
124.558769 -58.556642 688.000023 341284.000000 0.000000 -5.787123 -9.974505 -1.710388 
124.739811 -59.382904 689.000010 340004.000000 0.000000 -5.787123 -9.696335 -1.771572 
122.919500 -59.600476 683.000028 338723.000000 0.000000 -5.727489 -9.285769 -1.832744 
123.639382 -60.688522 687.000036 337443.000000 0.000000 -5.727489 -9.009151 -1.893904 
123.639382 -61.427519 687.000036 336163.000000 0.000000 -5.727489 -8.733835 -1.955054 
123.819351 -62.257003 688.000023 334883.000000 0.000000 -5.727489 -8.459828 -2.016191 
123.819351 -62.997073 688.000023 333603.000000 0.000000 -5.727489 -8.187134 -2.077317 
122.185469 -63.273944 683.000028 332322.000000 0.000000 -5.667832 -7.775858 -2.138431 
122.901052 -64.383499 687.000036 331042.000000 0.000000 -5.667832 -7.504865 -2.199532 
123.079948 -65.217286 688.000023 329762.000000 0.000000 -5.667833 -7.235206 -2.260622 
121.984892 -65.765627 686.000049 328481.000000 0.000000 -5.608153 -6.822906 -2.321699 
122.162715 -66.600487 687.000036 327201.000000 0.000000 -5.608154 -6.555043 -2.382764 
122.162715 -67.339487 687.000036 325921.000000 0.000000 -5.608154 -6.288536 -2.443816 
121.247642 -67.979388 686.000049 324640.000000 0.000000 -5.548453 -5.875460 -2.504855 
121.424384 -68.817481 687.000036 323360.000000 0.000000 -5.548453 -5.610840 -2.565882 
121.777870 -69.758967 689.000010 322080.000000 0.000000 -5.548453 -5.347600 -2.626895 
120.686039 -70.295475 687.000036 320799.000000 0.000000 -5.488730 -4.933981 -2.687896 
121.037379 -71.241260 689.000010 319519.000000 0.000000 -5.488730 -4.672717 -2.748882 
121.213056 -72.086886 690.000057 318239.000000 0.000000 -5.488730 -4.412846 -2.809856 
120.296888 -72.723553 689.000010 316958.000000 0.000000 -5.428985 -3.998926 -2.870816 
120.471492 -73.571332 690.000057 315678.000000 0.000000 -5.428985 -3.741111 -2.931762 
120.820686 -74.528955 692.000031 314398.000000 0.000000 -5.428985 -3.484706 -2.992695 
119.729944 -75.055778 690.000057 313117.000000 0.000000 -5.369219 -3.070718 -3.053613 
120.076977 -76.017708 692.000031 311837.000000 0.000000 -5.369219 -2.816442 -3.114518 
118.988372 -76.540232 690.000057 310556.000000 0.000000 -5.309430 -2.401834 -3.175409 
119.160824 -77.394456 691.000044 309276.000000 0.000000 -5.309431 -2.149757 -3.236284 
118.246809 -78.024670 690.000057 307995.000000 0.000000 -5.249620 -1.734652 -3.297145 
117.334954 -78.652740 689.000010 306714.000000 0.000000 -5.189790 -1.318314 -3.357992 
116.932914 -80.367647 691.000044 304153.000000 0.000000 -5.129937 -0.652686 -3.479641 
116.190270 -81.110947 691.000044 302872.000000 0.000000 -5.070063 -0.234910 -3.540444 
116.526566 -82.091153 693.000019 301592.000000 0.000000 -5.070064 0.010787 -3.601230 
115.036994 -83.582059 693.000019 299030.000000 0.000000 -4.950253 0.847597 -3.722759 
114.292212 -84.327504 693.000019 297749.000000 0.000000 -4.890317 1.267474 -3.783499 
112.639867 -85.694574 692.000031 295187.000000 0.000000 -4.770382 2.109973 -3.904934 
110.991828 -87.057337 691.000044 292625.000000 0.000000 -4.650366 2.955838 -4.026304 
110.408738 -87.927699 692.000031 291344.000000 0.000000 -4.590327 3.379926 -4.086966 
109.665021 -88.672072 692.000031 290063.000000 0.000000 -4.530268 3.804724 -4.147610 
109.078720 -89.545660 693.000019 288782.000000 0.000000 -4.470191 4.230183 -4.208239 
107.433900 -90.160817 692.000031 287500.000000 0.000000 -4.349974 4.850778 -4.268850 
106.690183 -90.905197 692.000031 286219.000000 0.000000 -4.289835 5.279291 -4.329446 
106.099576 -91.782004 693.000019 284938.000000 0.000000 -4.229679 5.708306 -4.390023 
105.354793 -92.527457 693.000019 283657.000000 0.000000 -4.169502 6.137788 -4.450585 
94.653830 -101.923317 691.000044 267003.000000 0.000000 -3.325067 11.964540 -5.236281 
94.047107 -102.815188 692.000031 265722.000000 0.000000 -3.264616 12.396909 -5.296591 
93.033731 -102.518037 690.000057 265721.000000 0.000000 -3.204146 12.623370 -5.296591 
92.024662 -102.220878 688.000023 265720.000000 0.000000 -3.143661 12.851464 -5.296591 
91.417924 -103.110604 689.000010 264439.000000 0.000000 -3.083156 13.286472 -5.356883 
90.414226 -102.811299 687.000036 264438.000000 0.000000 -3.022636 13.517672 -5.356883 
89.936957 -103.851750 689.000010 263157.000000 0.000000 -2.962099 13.953702 -5.417156 
89.067012 -103.701025 688.000023 263156.000000 0.000000 -2.901545 14.187978 -5.417156 
88.327594 -103.701025 688.000023 263155.000000 0.000000 -2.840974 14.423912 -5.417156 
87.842815 -104.744710 690.000057 261874.000000 0.000000 -2.780388 14.862238 -5.477409 
86.975008 -104.592897 689.000010 261873.000000 0.000000 -2.719784 15.101217 -5.477409 
86.359680 -105.486929 690.000057 260592.000000 0.000000 -2.659164 15.540304 -5.537643 
85.618123 -105.486929 690.000057 260591.000000 0.000000 -2.598529 15.782289 -5.537643 
84.753551 -105.334044 689.000010 260590.000000 0.000000 -2.537878 16.025944 -5.537643 
84.256940 -106.383108 691.000044 259309.000000 0.000000 -2.477211 16.466961 -5.597858 
83.393440 -106.229156 690.000057 259308.000000 0.000000 -2.416527 16.713589 -5.597859 
82.532093 -106.075190 689.000010 259307.000000 0.000000 -2.355829 16.961889 -5.597858 
81.554189 -105.767280 687.000036 259306.000000 0.000000 -2.295115 17.211876 -5.597858 
81.168763 -106.971376 690.000057 258025.000000 0.000000 -2.234386 17.655840 -5.658054 
80.194071 -106.661305 688.000023 258024.000000 0.000000 -2.173641 17.908749 -5.658053 
79.454660 -106.661305 688.000023 258023.000000 0.000000 -2.112882 18.163345 -5.658053 
78.944080 -107.713595 690.000057 256742.000000 0.000000 -2.052108 18.608727 -5.718229 
78.089170 -107.557483 689.000010 256741.000000 0.000000 -1.991318 18.866188 -5.718230 
77.236421 -107.401378 688.000023 256740.000000 0.000000 -1.930515 19.125338 -5.718230 
76.719396 -108.455822 690.000057 255459.000000 0.000000 -1.869697 19.571892 -5.778386 
75.867712 -108.298630 689.000010 255458.000000 0.000000 -1.808864 19.833839 -5.778386 
75.018190 -108.141452 688.000023 255457.000000 0.000000 -1.748018 20.097477 -5.778386 
74.170820 -107.984267 687.000036 255456.000000 0.000000 -1.687157 20.362803 -5.778386 
73.753148 -109.198041 690.000057 254175.000000 0.000000 -1.626282 20.811312 -5.838522 
72.799951 -108.881526 688.000023 254174.000000 0.000000 -1.565393 21.079359 -5.838522 
72.060548 -108.881526 688.000023 254173.000000 0.000000 -1.504492 21.349089 -5.838522 
71.217470 -108.723268 687.000036 254172.000000 0.000000 -1.443576 21.620514 -5.838522 
70.479132 -108.723268 687.000036 254171.000000 0.000000 -1.382646 21.893633 -5.838522 
70.045345 -109.940268 690.000057 252890.000000 0.000000 -1.321704 22.344585 -5.898639 
69.203340 -109.780923 689.000010 252889.000000 0.000000 -1.260748 22.620310 -5.898638 
68.462849 -109.780923 689.000010 252888.000000 0.000000 -1.199779 22.897720 -5.898638 
67.624070 -109.621592 688.000023 252887.000000 0.000000 -1.138797 23.176817 -5.898638 
66.787452 -109.462261 687.000036 252886.000000 0.000000 -1.077803 23.457594 -5.898638 
66.049114 -109.462261 687.000036 252885.000000 0.000000 -1.016796 23.740067 -5.898638 
65.595977 -110.682487 690.000057 251604.000000 0.000000 -0.955777 24.193584 -5.958735 
64.854413 -110.682487 690.000057 251603.000000 0.000000 -0.894745 24.478514 -5.958735 
64.019933 -110.522069 689.000010 251602.000000 0.000000 -0.833701 24.765110 -5.958735 
63.279442 -110.522069 689.000010 251601.000000 0.000000 -0.772644 25.053381 -5.958735 
62.448192 -110.361665 688.000023 251600.000000 0.000000 -0.711576 25.343319 -5.958735 
61.619092 -110.201254 687.000036 251599.000000 0.000000 -0.650496 25.634926 -5.958735 
61.146606 -111.424714 690.000057 250318.000000 0.000000 -0.589404 26.090002 -6.018811 
60.317501 -111.263216 689.000010 250317.000000 0.000000 -0.528301 26.383884 -6.018810 
59.577014 -111.263216 689.000010 250316.000000 0.000000 -0.467187 26.679415 -6.018810 
58.751136 -111.101739 688.000023 250315.000000 0.000000 -0.406061 26.976585 -6.018811 
58.011722 -111.101739 688.000023 250314.000000 0.000000 -0.344924 27.275396 -6.018811 
57.272311 -111.101739 688.000023 250313.000000 0.000000 -0.283776 27.575842 -6.018811 
56.532901 -111.101739 688.000023 250312.000000 0.000000 -0.222617 27.877920 -6.018811 
55.793487 -111.101739 688.000023 250311.000000 0.000000 -0.161447 28.181629 -6.018811 
55.054076 -111.101739 688.000023 250310.000000 0.000000 -0.100267 28.486961 -6.018811 
54.314665 -111.101739 688.000023 250309.000000 0.000000 -0.039076 28.793917 -6.018811 
53.575251 -111.101739 688.000023 250308.000000 0.000000 0.022125 29.102489 -6.018811 
52.989438 -111.424714 690.000057 250307.000000 0.000000 0.083336 29.412670 -6.018811 
52.247878 -111.424714 690.000057 250306.000000 0.000000 0.144557 29.724457 -6.018811 
51.580962 -111.586198 691.000044 250305.000000 0.000000 0.205788 30.037846 -6.018811 
50.240681 -111.909159 693.000019 250303.000000 0.000000 0.328280 30.669390 -6.018810 
5.860325 -48.631744 667.000055 355204.000000 1.000000 3.971426 47.975445 -1.015711 
5.477272 -46.797944 667.000055 359043.000000 1.000000 4.004328 48.171112 -0.858988 
5.447597 -46.703454 667.000055 359043.000000 1.000000 4.006877 48.193642 -0.850911 
5.321652 -45.445777 667.000055 361603.000000 1.000000 4.017695 48.167831 -0.743389 
4.819185 -42.941246 668.000042 365442.000000 1.000000 4.061474 48.443325 -0.523689 
4.622075 -40.972898 668.000042 369282.000000 1.000000 4.078380 48.410469 -0.355523 
4.169082 -38.682077 667.000055 373121.000000 1.000000 4.116696 48.695202 -0.164689 
4.122917 -37.742507 667.000055 375681.000000 1.000000 4.120662 48.612530 -0.084243 
4.198908 -36.982196 667.000055 376961.000000 1.000000 4.114135 48.369141 -0.019136 
4.195370 -34.874346 666.000009 379521.000000 1.000000 4.113897 47.986992 0.156920 
4.197623 -34.874346 666.000009 379521.000000 1.000000 4.113704 47.983345 0.156920 
4.197623 -34.694451 665.000021 380801.000000 1.000000 4.113161 47.948101 0.167878 
4.430177 -33.752363 665.000021 382082.000000 1.000000 4.093125 47.369057 0.248833 
4.836234 -30.975652 665.000021 387202.000000 1.000000 4.058141 45.972733 0.487506 
4.972010 -28.172694 666.000009 392322.000000 1.000000 4.047086 44.838001 0.732167 
4.972010 -27.433695 666.000009 393602.000000 1.000000 4.047086 44.574059 0.795633 
4.942038 -26.232962 667.000055 396162.000000 1.000000 4.050302 44.177757 0.902142 
5.039983 -25.846070 667.000055 396163.000000 1.000000 4.041889 43.812481 0.935326 
5.451227 -23.102208 668.000042 401283.000000 1.000000 4.007266 41.569950 1.173676 
5.882546 -21.909216 667.000055 403844.000000 1.000000 3.969517 39.817440 1.273071 
6.031291 -21.321293 667.000055 403844.000000 1.000000 3.956741 39.051731 1.323521 
6.198573 -20.868760 667.000055 405124.000000 1.000000 3.942373 38.303879 1.362355 
6.707960 -20.048570 667.000055 406405.000000 1.000000 3.898620 36.347195 1.432744 
7.193618 -19.407549 667.000055 407686.000000 1.000000 3.856906 34.508919 1.487760 
8.701572 -16.940374 667.000055 412808.000000 1.000000 3.727390 27.658991 1.699534 
8.851236 -16.629649 667.000055 412808.000000 1.000000 3.714536 26.822264 1.726209 
8.969583 -16.483038 667.000055 412808.000000 1.000000 3.704372 26.292959 1.738795 
10.479128 -14.202932 666.000009 416650.000000 1.000000 3.573377 18.426247 1.932723 
11.767201 -11.790780 666.000009 421772.000000 1.000000 3.462595 9.904035 2.140160 
11.941509 -11.374029 666.000009 421772.000000 1.000000 3.447605 8.452435 2.176003 
12.547347 -10.224349 666.000009 424333.000000 1.000000 3.395502 4.021951 2.274883 
13.247976 -8.735865 666.000009 426894.000000 1.000000 3.335250 -1.752003 2.402911 
13.567709 -7.954728 666.000009 428174.000000 1.000000 3.307755 -4.770279 2.470101 
13.605660 -7.876361 666.000009 428175.000000 1.000000 3.304491 -5.086622 2.476842 
13.633942 -7.831989 666.000009 428175.000000 1.000000 3.302059 -5.278189 2.480659 
14.386435 -6.363109 666.000009 430736.000000 1.000000 3.237351 -11.293541 2.607012 
14.642383 -6.026404 666.000009 432016.000000 1.000000 3.215342 -12.782587 2.635976 
15.615331 -4.429617 666.000009 434577.000000 1.000000 3.131683 -19.316210 2.773339 
16.110618 -3.757392 666.000009 435858.000000 1.000000 3.089098 -22.025200 2.831168 
16.141740 -3.734942 666.000009 435858.000000 1.000000 3.086422 -22.125250 2.833099 
18.279853 -2.414916 667.000055 438421.000000 1.000000 2.904960 -27.627657 2.946970 
18.965194 -1.889943 666.000009 438422.000000 1.000000 2.843690 -29.462391 2.991821 
19.464017 -1.614895 666.000009 439703.000000 1.000000 2.800812 -30.410446 3.015483 
22.130591 0.275483 666.000009 443546.000000 1.000000 2.571631 -35.866497 3.178112 
24.567496 2.453932 667.000055 447390.000000 1.000000 2.365407 -40.857399 3.365205 
25.310132 3.197230 667.000055 448671.000000 1.000000 2.301703 -42.352905 3.429054 
25.494709 3.383650 667.000055 448671.000000 1.000000 2.285871 -42.713409 3.445067 
26.416095 4.322695 668.000042 449952.000000 1.000000 2.210235 -44.446751 3.525173 
27.407557 4.791175 668.000042 451234.000000 1.000000 2.125333 -45.069115 3.565354 
27.628232 4.924738 668.000042 451234.000000 1.000000 2.106437 -45.260147 3.576809 
28.369341 5.296568 668.000042 452515.000000 1.000000 2.042982 -45.728706 3.608700 
28.370076 5.296851 668.000042 452515.000000 1.000000 2.042919 -45.728989 3.608724 
28.960631 5.592338 668.000042 452516.000000 1.000000 1.992359 -46.082687 3.634067 
29.370673 5.705335 668.000042 452516.000000 1.000000 1.957256 -46.146271 3.643759 
31.553757 6.539719 667.000055 453800.000000 1.000000 1.766348 -46.862453 3.716160 
33.256792 6.971768 666.000009 455082.000000 1.000000 1.616122 -46.993027 3.754169 
34.075390 7.268570 666.000009 455083.000000 1.000000 1.545877 -47.194527 3.779700 
35.862321 7.756237 666.000009 456366.000000 1.000000 1.392571 -47.357170 3.821648 
37.366618 8.328562 667.000055 457648.000000 1.000000 1.268352 -47.718452 3.869804 
37.370938 8.329662 667.000055 457648.000000 1.000000 1.267982 -47.718655 3.869898 
38.232179 8.474350 667.000055 457649.000000 1.000000 1.194237 -47.651142 3.882325 
40.961909 9.212196 666.000009 458933.000000 1.000000 0.955312 -47.828060 3.946884 
40.996692 9.225349 666.000009 458933.000000 1.000000 0.952331 -47.835152 3.948015 
42.298831 9.225349 666.000009 458935.000000 1.000000 0.840744 -47.456821 3.948015 
44.319338 9.295822 666.000009 458937.000000 1.000000 0.667653 -46.999176 3.954077 
44.380659 9.300105 666.000009 458938.000000 1.000000 0.662401 -46.988564 3.954445 
44.449382 9.302492 666.000009 458938.000000 1.000000 0.656515 -46.973728 3.954650 
45.658958 9.009848 666.000009 458939.000000 1.000000 0.552929 -46.316032 3.929479 
48.383637 8.619135 666.000009 457663.000000 1.000000 0.319689 -45.254112 3.895872 
51.133085 8.488505 666.000009 457667.000000 1.000000 0.084468 -44.578915 3.884636 
53.341642 8.488505 665.000021 457670.000000 1.000000 -0.111228 -44.195240 3.885734 
54.973746 8.543233 665.000021 457672.000000 1.000000 -0.250922 -43.986744 3.890448 
55.631299 8.543233 665.000021 457673.000000 1.000000 -0.307187 -43.883953 3.890448 
56.861000 8.584250 665.000021 457675.000000 1.000000 -0.412384 -43.738369 3.893981 
57.843085 8.543233 665.000021 457676.000000 1.000000 -0.496375 -43.554970 3.890448 
58.580350 8.543233 664.000034 457678.000000 1.000000 -0.566957 -43.450710 3.891557 
59.403838 8.570558 664.000034 457679.000000 1.000000 -0.637458 -43.363075 3.893914 
60.054872 8.543233 664.000034 457680.000000 1.000000 -0.693184 -43.249722 3.891557 
60.792133 8.543233 664.000034 457681.000000 1.000000 -0.756279 -43.152809 3.891557 
62.447859 8.597958 664.000034 457683.000000 1.000000 -0.897930 -42.992634 3.896278 
63.834101 8.597958 664.000034 457685.000000 1.000000 -1.016475 -42.824440 3.896278 
65.736838 8.660446 664.000034 457688.000000 1.000000 -1.179111 -42.658478 3.901669 
66.478630 8.709221 664.000034 457689.000000 1.000000 -1.242491 -42.617001 3.905877 
71.998051 7.191017 664.000034 455136.000000 1.000000 -1.713630 -40.856979 3.774892 
73.116672 6.481954 664.000034 453858.000000 1.000000 -1.809016 -40.219463 3.713714 
75.574640 5.233824 665.000021 451301.000000 1.000000 -2.008804 -39.114933 3.605344 
76.966156 4.686465 665.000021 451303.000000 1.000000 -2.127139 -38.637749 3.558187 
77.411439 4.457690 665.000021 450024.000000 1.000000 -2.164994 -38.449017 3.538476 
79.989507 3.431310 666.000009 448747.000000 1.000000 -2.373849 -37.609623 3.449604 
80.836046 3.184982 666.000009 448748.000000 1.000000 -2.445630 -37.409630 3.428413 
83.255650 1.021643 667.000055 444912.000000 1.000000 -2.640102 -35.856361 3.242172 
83.758429 0.620664 667.000055 443632.000000 1.000000 -2.682625 -35.577877 3.207727 
85.033044 -0.655089 667.000055 441074.000000 1.000000 -2.790390 -34.711918 3.098139 
85.790783 -1.818264 667.000055 439795.000000 1.000000 -2.854430 -33.939159 2.998222 
87.600891 -4.299002 666.000009 434678.000000 1.000000 -3.018443 -32.343784 2.784575 
89.598719 -6.503302 666.000009 430841.000000 1.000000 -3.187327 -31.001919 2.594952 
89.861363 -6.850850 666.000009 430841.000000 1.000000 -3.209519 -30.793631 2.565056 
90.341176 -7.865042 666.000009 428282.000000 1.000000 -3.250056 -30.177725 2.477816 
90.510462 -8.147612 666.000009 428282.000000 1.000000 -3.264355 -30.009499 2.453510 
90.890060 -8.982331 666.000009 427003.000000 1.000000 -3.296418 -29.509308 2.381711 
91.186375 -9.491469 666.000009 425723.000000 1.000000 -3.321442 -29.210869 2.337919 
91.589259 -10.384213 666.000009 424444.000000 1.000000 -3.355461 -28.684849 2.261133 
92.999362 -12.822152 665.000021 419326.000000 1.000000 -3.486287 -27.303230 2.049804 
93.162310 -13.188788 665.000021 419326.000000 1.000000 -3.500057 -27.095617 2.018227 
93.523473 -13.821001 665.000021 418046.000000 1.000000 -3.530573 -26.746923 1.963779 
93.742873 -15.299834 664.000034 415487.000000 1.000000 -3.561035 -25.883760 1.834441 
94.434594 -18.060883 665.000021 410368.000000 1.000000 -3.607537 -24.326080 1.598685 
94.982744 -19.592594 665.000021 407808.000000 1.000000 -3.653826 -23.498081 1.466820 
95.064978 -20.057800 665.000021 406529.000000 1.000000 -3.660769 -23.239193 1.426774 
95.244947 -20.815215 666.000009 405249.000000 1.000000 -3.663890 -22.825487 1.364268 
95.958770 -23.315251 666.000009 401410.000000 1.000000 -3.724060 -21.496704 1.149426 
96.639655 -25.082204 666.000009 397571.000000 1.000000 -3.781437 -20.603592 0.997617 
96.595982 -25.416220 666.000009 397570.000000 1.000000 -3.777757 -20.411844 0.968922 
96.547626 -26.531324 665.000021 395011.000000 1.000000 -3.785915 -19.787695 0.869709 
96.413019 -27.554637 665.000021 393731.000000 1.000000 -3.774557 -19.203487 0.781687 
96.411833 -27.581844 665.000021 393731.000000 1.000000 -3.774457 -19.188354 0.779347 
96.229743 -28.959864 664.000034 391170.000000 1.000000 -3.771320 -18.404406 0.657082 
96.118583 -31.496577 663.000047 386050.000000 1.000000 -3.774178 -17.010141 0.434555 
96.118583 -38.800485 665.000021 373250.000000 1.000000 -3.749709 -13.170709 -0.184816 
96.309377 -42.121571 665.000021 366850.000000 1.000000 -3.765811 -11.530816 -0.469902 
96.453259 -42.949056 665.000021 365571.000000 1.000000 -3.777953 -11.150685 -0.540906 
96.492145 -43.628610 665.000021 364291.000000 1.000000 -3.781234 -10.823362 -0.599209 
96.780346 -45.292782 666.000009 361731.000000 1.000000 -3.793291 -10.073922 -0.736122 
96.794890 -45.548942 666.000009 361731.000000 1.000000 -3.794516 -9.952961 -0.758057 
96.582734 -46.203574 666.000009 360450.000000 1.000000 -3.776641 -9.587635 -0.814109 
96.134697 -48.237823 665.000021 356610.000000 1.000000 -3.751069 -8.507037 -0.994447 
95.937674 -48.822397 665.000021 355330.000000 1.000000 -3.734441 -8.181905 -1.044547 
95.808628 -49.377745 665.000021 354049.000000 1.000000 -3.723549 -7.887689 -1.092136 
95.115641 -51.357575 665.000021 350208.000000 1.000000 -3.665047 -6.786538 -1.261743 
94.448206 -54.088179 666.000009 346367.000000 1.000000 -3.596709 -5.354599 -1.488588 
94.203213 -55.792639 667.000055 342527.000000 1.000000 -3.564134 -4.516820 -1.627085 
93.868666 -57.016253 667.000055 341246.000000 1.000000 -3.535956 -3.878627 -1.731448 
93.389551 -59.839542 667.000055 336126.000000 1.000000 -3.495595 -2.503513 -1.972123 
93.381428 -59.956541 667.000055 336126.000000 1.000000 -3.494911 -2.450389 -1.982093 
93.368934 -59.993298 667.000055 336126.000000 1.000000 -3.493858 -2.430935 -1.985225 
92.750113 -62.632589 667.000055 331005.000000 1.000000 -3.441716 -1.122818 -2.210042 
92.464443 -63.621533 668.000042 328444.000000 1.000000 -3.405975 -0.622819 -2.286131 
92.419318 -63.865053 668.000042 328444.000000 1.000000 -3.402177 -0.507453 -2.306830 
91.980043 -64.576928 668.000042 327164.000000 1.000000 -3.365204 -0.081563 -2.367330 
